x 	 y 	 z 
2.135323768	-5.941957499	-0.812089208
2.301798947	-5.739622792	-0.856447344
1.590560448	-5.714227228	-0.870488416
1.720874578	-5.409943149	-0.887479632
1.79360378	-4.999278294	-0.881849993
1.831264438	-4.567711311	-0.867462266
1.263387259	-4.5511254	-0.871732738
1.355097854	-4.269328994	-0.870348744
1.429652599	-3.993173826	-0.866543317
1.49737079	-3.734316676	-0.863703936
1.036247355	-3.749647846	-0.868636301
1.118430104	-3.532884113	-0.863637122
1.196361316	-3.342669095	-0.864291277
1.265788671	-3.159643449	-0.865203269
0.869928096	-3.162653085	-0.864010565
0.951346598	-3.013325502	-0.864282656
1.024528097	-2.864925791	-0.86435599
1.089327871	-2.717790268	-0.864748386
2.768619243	-9.93964317	1.524186234
3.158574955	-9.922940669	1.435548331
3.570288248	-9.941996457	1.353606839
3.98045031	-9.935330313	1.269059779
2.76462909	-9.925318899	1.139663738
3.154214461	-9.920023644	1.047622419
3.604800171	-10.0496783	0.974280731
4.020481104	-10.04947144	0.885129475
2.136653587	-7.683787272	0.588330612
3.188849936	-10.03380337	0.675670828
3.596378117	-10.03722118	0.583036272
4.004130467	-10.02381813	0.487886419
2.091763155	-7.531518613	0.290583473
3.19104794	-10.05896258	0.291085065
3.620533048	-10.11798124	0.194143014
4.005904756	-10.03130868	0.09369847
2.807749175	-10.12385909	0.007151207
3.21571018	-10.14407522	-0.095468018
3.624711135	-10.14193199	-0.196644259
3.98245457	-9.99030137	-0.300033492
2.815297608	-10.16761208	-0.379482319
3.191067209	-10.08221795	-0.478920605
3.304807161	-9.260098636	-0.540579612
3.361735985	-8.441316178	-0.586456593
2.163152975	-7.828289887	-0.589149663
2.432656131	-7.698617581	-0.663079313
2.568860199	-7.211085747	-0.700834494
2.695798706	-6.776028785	-0.739597129
1.834511061	-6.656604964	-0.755707275
1.99018722	-6.310987051	-0.787080653
2.118081721	-5.951283796	-0.812471928
2.282349866	-5.742054915	-0.855761472
1.572497278	-5.717172344	-0.870198023
1.702192744	-5.408600544	-0.886398523
1.77693671	-5.001039191	-0.881194819
1.816878612	-4.572393217	-0.867288698
1.251499766	-4.56256689	-0.873184708
1.339934637	-4.266910845	-0.869013544
1.414448271	-3.989230213	-0.864741767
1.481573939	-3.72798984	-0.861185223
1.032451256	-3.781054247	-0.875173975
1.10991487	-3.543733922	-0.865452918
1.180582226	-3.330755019	-0.860270226
1.267534039	-3.192336593	-0.873086639
0.867575606	-3.192369036	-0.87139743
0.942097398	-3.016230201	-0.864282658
1.031469235	-2.912486357	-0.877746235
1.080276506	-2.719336873	-0.864181903
2.733648779	-9.931876078	1.521701913
3.122760648	-9.915576117	1.433090234
3.537443196	-9.94636135	1.352717179
3.946285496	-9.938266171	1.267882231
2.734165612	-9.933753208	1.139663737
3.122869592	-9.926806383	1.047322011
3.563950562	-10.03253833	0.971554415
3.985222153	-10.05064068	0.884151422
2.112277522	-7.687421518	0.588109897
3.153561515	-10.02925897	0.67471012
3.563563941	-10.04256192	0.582708685
3.978139912	-10.04813002	0.488473405
2.06996915	-7.542719201	0.290769202
3.157777826	-10.06107578	0.290864498
3.592146229	-10.13658089	0.194287511
4.001605969	-10.11049582	0.094323007
2.775354952	-10.12760393	0.007147804
3.180084903	-10.13958046	-0.095333461
3.590910127	-10.14546471	-0.196498213
3.973089342	-10.05639393	-0.301650924
2.784881784	-10.17909339	-0.379590144
3.152358816	-10.06717398	-0.477744337
3.279376754	-9.278667386	-0.541073675
3.33692176	-8.454375336	-0.586649832
2.139651429	-7.836813852	-0.589294324
2.407241472	-7.700336865	-0.662588171
2.54672463	-7.218932994	-0.700834494
2.672807859	-6.77871406	-0.738991725
1.814863833	-6.665079565	-0.75603367
1.969337236	-6.312323234	-0.786490148
2.095527463	-5.945593426	-0.810813549
2.261092184	-5.739813902	-0.854389612
1.553393064	-5.716240692	-0.869326781
1.685003941	-5.411910342	-0.886089592
1.761585347	-5.006467323	-0.881194819
1.804646451	-4.582527144	-0.86815666
1.241354412	-4.580622495	-0.875907152
1.32858498	-4.276626187	-0.870158011
1.404150346	-3.999097584	-0.865942801
1.475504241	-3.746163227	-0.8643336
1.016016594	-3.766300563	-0.871033478
1.100478796	-3.551773611	-0.866587789
1.170036287	-3.333444658	-0.860033658
1.250991181	-3.179074875	-0.868405886
0.859031149	-3.199685449	-0.872671061
0.929991809	-3.009890331	-0.861644436
0.999289678	-2.849372631	-0.857797511
1.070523261	-2.71906894	-0.863048938
3.911429239	-9.924026805	1.663737501
2.698752351	-9.92398731	1.519217708
3.088789263	-9.913760421	1.431451464
3.500980608	-9.940326792	1.350429315
3.909594675	-9.934617258	1.265880588
2.699503481	-9.926749834	1.137904686
3.098313397	-9.955340913	1.049324727
3.520265672	-10.00678706	0.968010263
3.952545791	-10.05818177	0.883743905
2.082412009	-7.670766747	0.586344229
3.113588355	-10.0093465	0.672724749
3.533399062	-10.0553312	0.582817881
3.94218542	-10.04726813	0.487841268
2.057279049	-7.587613512	0.292255205
3.122153275	-10.05544171	0.290423334
3.547456817	-10.10887336	0.193546923
3.978601854	-10.14320505	0.094513839
2.746361663	-10.14379272	0.007153249
3.148962111	-10.14928915	-0.095333461
3.559436788	-10.15548947	-0.196479959
3.962991727	-10.12159135	-0.303240461
2.115295924	-7.825921044	-0.291594257
3.120571656	-10.0739352	-0.477608618
3.248915706	-9.283029625	-0.540744299
3.309877884	-8.461785285	-0.586456594
2.115078804	-7.841415282	-0.589149663
2.384489182	-7.710542807	-0.662833742
2.524893745	-7.227652272	-0.700925688
2.644032303	-6.766495666	-0.736771929
1.792341288	-6.662936357	-0.755163264
1.949376376	-6.316437854	-0.786253877
2.078583901	-5.955740139	-0.811323824
2.238068808	-5.732883066	-0.852331822
1.535335522	-5.719068817	-0.869036388
1.667520156	-5.414222019	-0.885626227
1.746866609	-5.013711136	-0.881522406
1.793443341	-4.595381764	-0.869545449
1.231618663	-4.600558181	-0.878992644
1.314016485	-4.275990241	-0.869204277
1.390909364	-4.000610166	-0.865342283
1.45440538	-3.726080776	-0.858666568
1.002697826	-3.762798468	-0.869508016
1.088150042	-3.550477426	-0.865452917
1.16395066	-3.348949637	-0.863108601
1.241584214	-3.183800966	-0.868652233
0.849210611	-3.202305858	-0.872671061
0.924136289	-3.023798743	-0.864810278
1.000325615	-2.880594789	-0.866268882
1.062176225	-2.722340399	-0.863048938
3.881323975	-9.936901266	1.663891639
2.665213135	-9.920755726	1.517464022
3.054566528	-9.910883666	1.4296762
3.467201175	-9.941654966	1.349158305
3.88017971	-9.949340279	1.266233805
2.070501392	-7.707052218	0.8827282
3.064535832	-9.954339582	1.048223234
3.493479884	-10.02882573	0.96910079
3.919499203	-10.06468849	0.883254908
2.055768848	-7.665560288	0.585461424
3.082278317	-10.0169441	0.672596658
3.495642213	-10.0463199	0.581671266
3.913876334	-10.06583294	0.488157322
2.067601959	-7.719376516	0.297084641
3.074266795	-10.00954964	0.288824112
3.513801167	-10.11215299	0.193402411
3.948188684	-10.15722739	0.094531184
2.084284211	-7.793087678	0.005491032
3.11546247	-10.15125536	-0.095261689
3.520723628	-10.14463771	-0.196060089
3.94385285	-10.16445598	-0.304160727
2.088698398	-7.822718496	-0.291234782
3.09784506	-10.11020541	-0.478875365
3.224343828	-9.304275137	-0.541403109
3.282459013	-8.468178021	-0.586198982
2.093836298	-7.85846829	-0.589945504
2.36344605	-7.726399185	-0.663570396
2.502382166	-7.234423567	-0.700834494
2.629008527	-6.789420047	-0.738386321
1.773422925	-6.674168356	-0.755816054
1.930568442	-6.324287927	-0.786490148
2.060950098	-5.963964136	-0.811578932
2.216896069	-5.730483963	-0.850959961
1.518036032	-5.724708293	-0.869181584
1.650613752	-5.418367039	-0.88547179
1.732441705	-5.02184461	-0.882013728
1.783599126	-4.611884531	-0.871628572
1.218755579	-4.609068758	-0.879900125
1.305173783	-4.294089599	-0.872065418
1.380542614	-4.010417206	-0.866543318
1.451079577	-3.751498697	-0.863494067
0.990155346	-3.762081716	-0.868636299
1.078382305	-3.557527206	-0.866360815
1.147979814	-3.335967275	-0.858850982
1.223775516	-3.166802439	-0.862986036
0.837912049	-3.199283265	-0.871142738
0.912901375	-3.020156558	-0.862963546
0.990232263	-2.880011521	-0.865175792
1.053473366	-2.72469187	-0.862765697
3.851889649	-9.951526066	1.664353932
2.633749237	-9.925061426	1.516879538
3.019524277	-9.90504709	1.427491212
3.436360475	-9.951308131	1.349031228
3.840688017	-9.938040741	1.26329017
2.036904298	-7.675901658	0.878440421
3.026446396	-9.938946742	1.045619702
3.455551824	-10.01878413	0.96710153
3.888243887	-10.07573601	0.88317337
2.031730777	-7.669902899	0.58531426
3.043977543	-10.0015309	0.670931484
3.459925498	-10.04283646	0.580852239
3.866813989	-10.0358456	0.48612543
2.045443085	-7.731480029	0.297307533
3.041509583	-10.01223908	0.288631112
3.489917093	-10.14368559	0.19379981
3.91053859	-10.15249609	0.09437505
2.056789879	-7.785909885	0.005481503
3.080818828	-10.14928329	-0.095154043
3.488933886	-10.15349975	-0.196023581
3.908704194	-10.16624432	-0.303853971
2.06188547	-7.818460162	-0.290839394
3.068551164	-10.12539885	-0.479146805
3.198051744	-9.320734536	-0.541787381
3.255032305	-8.474482426	-0.585941312
2.060833204	-7.831096694	-0.587413202
2.341173805	-7.73838356	-0.663979642
2.480175503	-7.242066419	-0.700834493
2.601038414	-6.778876538	-0.736368346
1.751929166	-6.675731454	-0.75538088
1.912304752	-6.333983746	-0.786962575
2.042001156	-5.968381913	-0.811323823
2.197532002	-5.732633761	-0.85027403
1.500465701	-5.729338701	-0.869181585
1.635977742	-5.430027869	-0.886552959
1.713838137	-5.017800503	-0.880375851
1.768384438	-4.614576053	-0.871107806
1.204609327	-4.612786079	-0.879900125
1.289732894	-4.290553317	-0.870539482
1.368548392	-4.015561133	-0.86674347
1.445161947	-3.770540208	-0.866852312
0.980572828	-3.772658517	-0.870379676
1.066623817	-3.558020122	-0.865679891
1.146200087	-3.36430582	-0.865237382
1.215093856	-3.173257232	-0.863725132
0.828819265	-3.204647651	-0.871906872
0.905288908	-3.028488104	-0.864546468
0.971782541	-2.854806621	-0.856704422
1.047853986	-2.735075496	-0.865031627
3.815679493	-9.948535896	1.661888207
2.602284028	-9.929267387	1.516294937
2.985976127	-9.903830497	1.425988937
3.400359184	-9.945848789	1.34687056
3.806629196	-9.940503078	1.262112739
2.012337424	-7.678268387	0.878000657
2.99335749	-9.939610352	1.04471848
3.419649352	-10.01425991	0.965647475
3.851262264	-10.07179212	0.881787859
2.004404084	-7.661627853	0.584210739
3.017593578	-10.02515674	0.671892191
3.423940782	-10.03828339	0.579978613
3.830661471	-10.03366204	0.485448112
2.020197769	-7.731917654	0.297084641
3.018543681	-10.04737197	0.289375574
3.458780305	-10.15434456	0.19379981
3.872598133	-10.14669513	0.094210243
2.027339686	-7.770896161	0.005466528
3.046504136	-10.1481518	-0.09505536
3.45647894	-10.16036993	-0.195950565
3.85899129	-10.12961329	-0.302403879
2.036378001	-7.818946769	-0.290623715
3.037472393	-10.13476479	-0.479146805
3.164945158	-9.317266337	-0.541018779
3.226887981	-8.478832162	-0.585554835
2.111305822	-8.124080922	-0.608901331
2.31742163	-7.74552986	-0.663979642
2.456666578	-7.245869201	-0.700469832
2.580582562	-6.787754489	-0.736469256
1.730691944	-6.678188072	-0.755054485
1.892295171	-6.337917853	-0.786726361
2.022726276	-5.971800609	-0.810941103
2.178878928	-5.736571093	-0.849862462
1.481642598	-5.729125794	-0.868455542
1.619875142	-5.436914988	-0.886861831
1.699699645	-5.026772985	-0.881031025
1.7573651	-4.628265692	-0.872670163
1.188732978	-4.609794216	-0.878629651
1.276004128	-4.29260785	-0.87015801
1.358728156	-4.027167514	-0.868344867
1.441570943	-3.795979063	-0.871679813
0.970692153	-3.782266288	-0.871905137
1.062346105	-3.583685635	-0.87112728
1.137736262	-3.373330421	-0.866656568
1.206384077	-3.179688744	-0.864464172
0.812045097	-3.18000385	-0.864520008
0.899821285	-3.04420144	-0.86823999
0.956568603	-2.838631677	-0.850965689
1.040138676	-2.740070695	-0.865598111
3.779874913	-9.946341438	1.65957662
2.569826396	-9.929542699	1.515125852
2.953030153	-9.904401474	1.42475989
3.35997192	-9.92710895	1.342930456
3.768011837	-9.930780673	1.259404661
1.987526289	-7.67959506	0.877450983
2.963133112	-9.949701424	1.044818617
3.384444948	-10.01149655	0.964375214
3.810810242	-10.05839483	0.879587255
1.980639719	-7.666775704	0.584137187
2.978850878	-10.00758616	0.670098926
3.387697126	-10.03265876	0.579050391
3.795265956	-10.03322025	0.484861096
1.994470007	-7.730338193	0.296787423
2.987989319	-10.05754378	0.289403141
3.422499381	-10.14974989	0.193510802
3.846755777	-10.17255842	0.094340352
1.999996986	-7.763521782	0.005456999
3.009664283	-10.13827839	-0.094875943
3.418589934	-10.15102804	-0.195567203
3.825777935	-10.13579403	-0.30223654
2.013624626	-7.829996684	-0.290803452
3.008919835	-10.15265602	-0.479553964
3.135390508	-9.32409248	-0.540854091
3.203676807	-8.49616272	-0.586070118
2.129259212	-8.29765123	-0.621417949
2.293930682	-7.753558705	-0.664061479
2.431890195	-7.245819516	-0.69974045
2.560797882	-6.798432383	-0.736771928
1.710441773	-6.68442975	-0.755163264
1.871436027	-6.338931723	-0.786135799
1.997774142	-5.958229971	-0.808262173
2.160222528	-5.740447271	-0.849450949
1.461121585	-5.722140769	-0.866713119
1.605141818	-5.448493138	-0.887942999
1.68458289	-5.032899591	-0.881194819
1.743851086	-4.6354788	-0.873017359
1.17118793	-4.600077907	-0.876088648
1.261998237	-4.293677136	-0.869585806
1.344193997	-4.024811982	-0.866943623
1.418900382	-3.771100731	-0.864963321
0.959323493	-3.78617266	-0.872123052
1.050798684	-3.585058806	-0.870673331
1.129535497	-3.383256588	-0.868312326
1.207876827	-3.213312463	-0.872593946
0.801576006	-3.179667193	-0.863755818
0.880195503	-3.011765544	-0.858214725
0.956682543	-2.868015761	-0.858890544
1.031052218	-2.741453453	-0.865031627
3.742030682	-9.938472967	1.656340444
2.535921914	-9.923960943	1.513079981
2.9215096	-9.909613419	1.424213672
3.326033849	-9.927024308	1.341532368
3.733682935	-9.932068795	1.258109452
1.965186715	-7.690471756	0.878000658
2.931469797	-9.954927243	1.044418073
3.349605773	-10.00955563	0.96319385
3.76732437	-10.03644725	0.876653098
1.958094863	-7.676681369	0.584431455
2.944752736	-10.00518989	0.669330383
3.352786203	-10.03069377	0.578340559
3.760960756	-10.03546247	0.484409561
1.969264024	-7.730610226	0.296564531
2.95627402	-10.06378591	0.28932041
3.387228846	-10.14787262	0.193275975
3.800794251	-10.14498295	0.093976041
1.975183314	-7.76574464	0.005454276
2.974321865	-10.13307265	-0.094741378
3.390276746	-10.17000494	-0.195731503
3.790462226	-10.13624832	-0.301901919
2.585241486	-10.18213578	-0.377864739
2.975229519	-10.15321176	-0.479146805
3.108031191	-9.337457396	-0.541073675
3.180738875	-8.514364349	-0.586649832
2.105751726	-8.311879181	-0.62199671
2.271251477	-7.764386025	-0.664388887
2.407765142	-7.247575993	-0.699193399
2.540624359	-6.8081212	-0.73697375
1.690413196	-6.691573058	-0.75538088
1.853927299	-6.351315689	-0.786962574
1.976985724	-5.956800457	-0.807241681
2.138448586	-5.735910011	-0.847804729
1.440899063	-5.71604306	-0.865115893
1.590628832	-5.460980523	-0.889178603
1.669444404	-5.038980311	-0.881358612
1.729965277	-4.641729995	-0.873190987
1.156829811	-4.60269586	-0.875907152
1.249641164	-4.300356309	-0.87015801
1.331224659	-4.02705638	-0.866543316
1.409373136	-3.780933142	-0.86622265
0.944151026	-3.774895965	-0.868854272
1.038710679	-3.58452404	-0.869765433
1.113662971	-3.370099894	-0.864054707
1.18888061	-3.19248051	-0.865942307
0.792984676	-3.186803422	-0.865029449
0.876573891	-3.033911881	-0.863755036
0.941847416	-2.852668562	-0.853425154
1.021297243	-2.741009042	-0.863898661
3.702543997	-9.925837431	1.652333583
2.502317947	-9.919224542	1.511180261
2.889152838	-9.91187222	1.423257732
3.294625848	-9.934357719	1.341151137
3.700075026	-9.935101546	1.257049682
1.939152119	-7.686826783	0.87690125
2.899524117	-9.959097738	1.043917394
3.316062849	-10.01127625	0.962375954
3.734083602	-10.0414194	0.876082563
1.935020946	-7.684587112	0.584578619
2.915716379	-10.01992677	0.669714655
3.319487671	-10.03334875	0.577903717
3.728068441	-10.04133475	0.484138658
1.944562879	-7.732739	0.296415937
2.913675314	-10.0324899	0.288162351
3.347297435	-10.13163436	0.1927702
3.768260008	-10.15284638	0.093941344
1.953540832	-7.780496809	0.005460402
2.94349859	-10.14310989	-0.094750348
3.358746306	-10.17940828	-0.195713249
3.753443511	-10.13189454	-0.301427824
2.548888699	-10.16966272	-0.377109876
2.941564157	-10.15365631	-0.478739646
3.08374363	-9.360225924	-0.541842276
3.160143903	-8.53905705	-0.587680396
2.080483384	-8.319267793	-0.62206907
2.247696952	-7.772274995	-0.664470783
2.38365198	-7.249252741	-0.698646407
2.518345377	-6.812150798	-0.736570166
1.670597278	-6.699621332	-0.755707275
1.837736825	-6.368422641	-0.788379855
1.962105996	-5.97320312	-0.808644894
2.119811528	-5.739656246	-0.847393159
1.422877959	-5.718516424	-0.864825498
1.565392408	-5.436402787	-0.884390621
1.655206743	-5.047828009	-0.882013728
1.715375423	-4.646091834	-0.87301736
1.144597764	-4.613858653	-0.877359178
1.239694413	-4.315492089	-0.87244689
1.32191012	-4.040433852	-0.868545022
1.410975628	-3.82100953	-0.874408394
0.933267089	-3.780617467	-0.869508017
1.022612975	-3.569905063	-0.865452916
1.100298088	-3.36426586	-0.861689415
1.177067945	-3.190657284	-0.864464172
0.784818356	-3.195794918	-0.866812462
0.867261901	-3.036586928	-0.863755036
0.928609404	-2.84182924	-0.849326083
1.010890661	-2.738731271	-0.862199214
3.668992274	-9.928808177	1.6509467
2.470918265	-9.923015342	1.51059566
2.857633073	-9.916881809	1.422711515
3.259801508	-9.931224929	1.3393717
3.667514977	-9.940816391	1.256343247
1.916040521	-7.694669223	0.877121132
2.870332326	-9.97272717	1.044418073
3.281610327	-10.01004753	0.961285488
3.69912504	-10.04160542	0.87510451
1.914322496	-7.702101537	0.585461424
2.883030705	-10.02211179	0.669266368
3.287447243	-10.03969008	0.577685325
3.6968999	-10.05178693	0.484093507
1.921311428	-7.740608353	0.296490234
2.88150328	-10.03657752	0.288024486
3.312158684	-10.12950228	0.192535387
3.734678402	-10.15779003	0.093880622
1.933991178	-7.803924969	0.005472654
2.909608692	-10.14248068	-0.094660643
3.323776167	-10.17825961	-0.195494187
3.717520339	-10.13022383	-0.301037413
2.513596976	-10.16094278	-0.376498779
2.911499544	-10.16647424	-0.478920605
3.055321854	-9.370592303	-0.541897173
3.143892688	-8.575883718	-0.589548287
2.062120468	-8.354661462	-0.624239574
2.229046139	-7.797341467	-0.666025929
2.358627062	-7.248008768	-0.69782583
2.497776344	-6.820779378	-0.736671077
1.650035329	-6.704715056	-0.755707275
1.819279618	-6.377850525	-0.78885234
1.945917666	-5.985797186	-0.80953789
2.102192525	-5.746132733	-0.847393159
1.404619253	-5.719972142	-0.864389907
1.547353988	-5.436428329	-0.883618383
1.639407876	-5.051943945	-0.881849992
1.702804622	-4.655957202	-0.873885324
1.13371121	-4.630720997	-0.879900124
1.226716911	-4.320219369	-0.872637625
1.313431424	-4.056587834	-0.871147241
1.389841813	-3.799610027	-0.868531435
0.920508974	-3.778721642	-0.868418385
1.009533315	-3.565529155	-0.863637121
1.104033725	-3.411072854	-0.872806455
1.167938914	-3.196073971	-0.864956921
0.776832071	-3.205706129	-0.868850225
0.857941702	-3.039233244	-0.863755035
0.922550182	-2.852902353	-0.851785549
1.017303432	-2.782352491	-0.874945249
3.634098505	-9.927955994	1.64894327
2.440227258	-9.929588413	1.510449509
2.82638073	-9.922744371	1.422301794
3.223495117	-9.923254528	1.336956876
3.634272826	-9.94456035	1.255401257
1.899303503	-7.728502557	0.880309444
2.842990096	-9.992969776	1.045619702
3.249655196	-10.01627884	0.960921959
3.672058616	-10.06320561	0.876001083
1.893059691	-7.717624149	0.586197124
2.857455773	-10.0491471	0.670483197
3.254783784	-10.04402907	0.577357738
3.664676135	-10.05932697	0.483912875
1.898505562	-7.750348755	0.296638828
2.846058631	-10.02902308	0.287555755
3.278603708	-10.13200639	0.192390876
3.695969136	-10.14852907	0.09368979
1.913603465	-7.824392387	0.005482864
2.874932163	-10.13885353	-0.09454402
3.279620916	-10.14845054	-0.194727478
3.681301306	-10.12749014	-0.300619108
2.47956778	-10.15695634	-0.37606745
2.880839517	-10.17728127	-0.479011085
3.026865703	-9.380872285	-0.541952069
3.122676418	-8.599558632	-0.590514477
2.037187072	-8.363856204	-0.624456654
2.207010645	-7.810856959	-0.666598908
2.337295208	-7.258054774	-0.698099356
2.474124568	-6.82092825	-0.735863852
1.628988537	-6.7078141	-0.755489659
1.79970413	-6.383401641	-0.788852339
1.928151915	-5.993627549	-0.809792999
2.08320381	-5.748829691	-0.846844379
1.386365053	-5.721370089	-0.863954317
1.530132892	-5.439248047	-0.883309453
1.62450434	-5.058828292	-0.882177521
1.689183226	-4.663011015	-0.87423252
1.116958822	-4.623662721	-0.877903667
1.208947929	-4.307895333	-0.869395013
1.300082978	-4.057799056	-0.870546723
1.382508018	-3.815806379	-0.871260017
0.910508261	-3.788170634	-0.869943847
0.999639423	-3.572361196	-0.86454502
1.097119748	-3.425547777	-0.875644828
1.162086229	-3.210578071	-0.867913193
0.766993419	-3.208074387	-0.868850225
0.848613411	-3.041851067	-0.863755035
0.915552246	-2.861216348	-0.853425155
1.001904588	-2.766524117	-0.868997066
3.600928503	-9.931627446	1.647710408
2.409286008	-9.935105216	1.510157326
2.794582786	-9.926600796	1.421618963
3.191821635	-9.929320681	1.336448449
3.596648065	-9.936053774	1.252928616
2.40473891	-9.916354703	1.128669541
2.813126739	-10.00451908	1.045920111
3.22043254	-10.03094292	0.961376326
3.634731141	-10.05661461	0.874452495
1.875707882	-7.749566585	0.588183449
2.144326392	-7.630105473	0.508642401
3.219380382	-10.03970527	0.576538711
3.626337892	-10.04985001	0.482919504
1.875892794	-7.760993657	0.296824586
2.106935757	-7.512158807	0.215204984
3.242930103	-10.12773409	0.192119928
3.661084111	-10.1494728	0.093594378
1.9071836	-7.903134015	0.005533915
2.841384457	-10.13896041	-0.094463285
3.242379762	-10.13941862	-0.19436237
3.650213277	-10.13873578	-0.300619108
2.450267235	-10.17228794	-0.376355012
2.847987847	-10.1802991	-0.478739645
2.99412322	-9.377748762	-0.541238363
3.098642756	-8.61567128	-0.590965327
2.012216812	-8.372976021	-0.624673733
2.185181522	-7.825270736	-0.667253725
2.315016785	-7.265191028	-0.698099355
2.447804648	-6.813505793	-0.73424946
1.60747513	-6.708913224	-0.755054485
1.780378174	-6.389849606	-0.788970417
1.907949597	-5.993844157	-0.809027615
2.062210712	-5.745870767	-0.845472578
1.367425251	-5.71982254	-0.863083075
1.515820042	-5.452483709	-0.884699551
1.606586548	-5.056266867	-0.880867231
1.67520194	-4.669098631	-0.874406148
1.105732225	-4.639503517	-0.880263117
1.193889427	-4.304962508	-0.868059868
1.287627715	-4.061768666	-0.870546724
1.36187845	-3.795182662	-0.865592985
0.900458217	-3.797593548	-0.871469307
0.987117455	-3.569779174	-0.863183173
1.075745028	-3.394627203	-0.866893138
1.157790878	-3.229637732	-0.872101254
0.755815766	-3.204765319	-0.867321904
0.835175626	-3.029562127	-0.859533836
0.91460936	-2.888772494	-0.860803435
0.989526725	-2.758751991	-0.86559811
3.568104209	-9.936119415	1.646631684
2.378103571	-9.939563843	1.509718875
2.762522012	-9.929401894	1.420799637
3.158637959	-9.930558763	1.335304517
3.562461303	-9.936759102	1.251633408
2.375229641	-9.927552443	1.129109304
2.781354502	-10.00926719	1.045519566
3.18813519	-10.03602963	0.960921958
3.600501682	-10.05833524	0.873637461
1.85632484	-7.773715056	0.589581296
2.128384818	-7.663571739	0.510435666
3.181618258	-10.0276447	0.575282841
3.590109182	-10.04587707	0.482197037
1.85369616	-7.77351676	0.297084641
2.085747873	-7.525330908	0.215397985
3.206407917	-10.12047908	0.1917948
3.629255855	-10.15877396	0.093577025
1.885475712	-7.919648336	0.005541402
2.804126858	-10.1254645	-0.094256956
3.206129666	-10.13311269	-0.194052038
3.621105317	-10.15553599	-0.300786448
2.42066471	-10.18656329	-0.376606633
2.817540297	-10.19187751	-0.478875365
2.958721604	-9.365943378	-0.540030652
3.071526105	-8.623257498	-0.590836522
1.983988419	-8.368434868	-0.623877833
2.160103137	-7.82809491	-0.666926317
2.293614744	-7.275108581	-0.698372881
2.424221533	-6.813484694	-0.733442234
1.585741631	-6.708976115	-0.754510474
1.75839375	-6.386665381	-0.787907428
1.893127025	-6.011021765	-0.810558383
2.038933317	-5.736303721	-0.843140427
1.348053878	-5.716286984	-0.861921441
1.499084879	-5.457108559	-0.884699551
1.589291455	-5.055525902	-0.879884471
1.662518118	-4.678855864	-0.875274111
1.089017676	-4.632343991	-0.87826666
1.181454616	-4.311445215	-0.868632073
1.271055495	-4.052611793	-0.86774435
1.349246382	-3.796579155	-0.864963321
0.885024762	-3.784182786	-0.86776464
0.978727762	-3.58218547	-0.865452918
1.062999928	-3.390494502	-0.865000869
1.140743337	-3.21308133	-0.866681403
0.746856436	-3.21083649	-0.868340785
0.822835228	-3.02094233	-0.856367995
0.905742392	-2.891564919	-0.860803435
0.978169156	-2.753641413	-0.863048938
3.533631002	-9.935848141	1.64478239
2.345552939	-9.93814824	1.50840364
2.732308638	-9.938785646	1.420936133
3.126369999	-9.934525686	1.334541935
3.52564597	-9.929861151	1.249396208
2.341336419	-9.92028269	1.127460163
2.749316094	-10.01295616	1.045018888
3.150163904	-10.02296259	0.958740906
3.558303554	-10.03739504	0.870866322
1.844356826	-7.829851133	0.593406842
2.10248631	-7.661404368	0.509859289
3.140073091	-10.00306183	0.573317199
3.554939281	-10.04460151	0.48161005
1.833499705	-7.794731118	0.297679019
2.066347075	-7.545192011	0.215784014
3.175941749	-10.13217589	0.19183092
3.575058927	-10.10481445	0.092978513
1.859569364	-7.918581137	0.005536638
2.768298718	-10.11665915	-0.09409548
3.172338565	-10.13431352	-0.193887738
3.586935969	-10.15811444	-0.300535453
2.387348901	-10.18518545	-0.376283129
2.113976678	-7.739253918	-0.363330003
2.92520774	-9.359728822	-0.53915226
3.04638356	-8.636404963	-0.591094134
1.954444394	-8.357971815	-0.622647891
2.130046946	-7.812569363	-0.665043704
2.271580836	-7.283061953	-0.698464017
2.403306792	-6.820890227	-0.733442235
1.565602644	-6.715745655	-0.754728089
1.740876591	-6.399695447	-0.78885234
1.878217014	-6.02816447	-0.812089207
2.014747303	-5.72384502	-0.840396706
1.329613614	-5.716541259	-0.861340653
1.48777029	-5.481705648	-0.887942999
1.572601999	-5.056609692	-0.879229296
1.652405271	-4.696011106	-0.877530862
1.071469094	-4.621293397	-0.875544159
1.168221823	-4.315049639	-0.868632073
1.260067936	-4.061171215	-0.868745174
1.336293985	-3.797011591	-0.86412373
0.875823643	-3.797341302	-0.870161762
0.96595654	-3.578589483	-0.863864096
1.054320035	-3.399308045	-0.866420057
1.133773492	-3.224794793	-0.868898635
0.738731759	-3.220652879	-0.870378547
0.819829095	-3.046738379	-0.862963546
0.898575276	-2.899843221	-0.862443099
0.969398285	-2.755724723	-0.862765697
3.499521136	-9.936390712	1.643087233
2.313257969	-9.937589444	1.507234555
2.701284774	-9.945209589	1.420663024
3.08850558	-9.920394162	1.331364412
3.492200676	-9.932199904	1.248336556
2.310890569	-9.927418602	1.127460163
2.094685127	-7.721504783	0.805193281
3.116738013	-10.02402176	0.95792307
3.522210364	-10.03321795	0.869562291
1.823260326	-7.848101483	0.594363258
2.077927126	-7.663965721	0.509603108
3.1055195	-10.00025173	0.572607367
3.522123757	-10.04980367	0.481339117
1.816126215	-7.82855013	0.298756343
2.047105198	-7.565970003	0.216197596
3.143360998	-10.13709723	0.191740604
3.546024688	-10.12139671	0.093030555
1.835492365	-7.925222909	0.005537319
2.085360731	-7.713767859	-0.071686242
3.140048973	-10.14017822	-0.193814708
3.539257578	-10.12189207	-0.299141121
1.838416402	-7.953002631	-0.293607226
2.110524104	-7.820932493	-0.366858777
2.8935294	-9.359119403	-0.5386033
3.012304596	-8.624042016	-0.589612719
1.923190278	-8.339631829	-0.620839128
2.108141941	-7.826766433	-0.665698521
2.248932463	-7.289044946	-0.698372881
2.38925182	-6.847957557	-0.73556112
1.545437152	-6.72245505	-0.754945706
1.71891508	-6.396375643	-0.787789351
1.857084816	-6.025368135	-0.810941103
1.999785453	-5.737482076	-0.841494206
1.310963378	-5.715771696	-0.86061461
1.469410443	-5.480518636	-0.887016325
1.555630792	-5.056696315	-0.878410329
1.637666372	-4.700128548	-0.877357293
1.056628551	-4.621683	-0.874999671
1.158021364	-4.329993158	-0.870920952
1.247315052	-4.064080963	-0.868545019
1.328821383	-3.813096078	-0.866852314
0.86481872	-3.802865329	-0.870815563
0.953467605	-3.575890085	-0.86250225
1.045311052	-3.407170896	-0.867602731
1.129610289	-3.244733318	-0.873333042
0.72714108	-3.215358674	-0.868340785
0.813699079	-3.061357963	-0.866393257
0.886855481	-2.893389268	-0.859710404
0.961570216	-2.76049724	-0.863332181
3.464139774	-9.933086522	1.640775646
2.279217616	-9.929211879	1.5048965
2.667936456	-9.942924974	1.419160866
3.055428311	-9.921291973	1.330220599
3.459426997	-9.936302369	1.247512343
2.278198902	-9.924774042	1.126360696
2.082318185	-7.770181756	0.809599256
3.085091858	-10.03068129	0.957650439
3.49043063	-10.04115194	0.869317793
2.290222352	-9.997155837	0.756582723
2.049240815	-7.651025503	0.508322204
3.071892581	-10.00018765	0.572061388
3.49029218	-10.05773086	0.481203665
1.807253376	-7.900326756	0.301282537
2.028529591	-7.589597506	0.216693908
3.111952729	-10.14573734	0.191722544
3.517577905	-10.13978656	0.09309995
1.808497801	-7.919118291	0.00552915
2.071747506	-7.757807383	-0.072036106
3.107167566	-10.14402819	-0.193705184
3.503935697	-10.12042292	-0.298778606
1.811565355	-7.947887228	-0.293211838
2.088320992	-7.834127646	-0.367175486
2.863050482	-9.362223032	-0.538273925
2.986484443	-8.635129343	-0.589741525
1.900691564	-8.35910831	-0.621852049
2.081813679	-7.824528763	-0.664961866
2.226850036	-7.29686272	-0.698464017
2.370180511	-6.860898005	-0.736166525
1.525684676	-6.731042645	-0.75538088
1.694442669	-6.383383598	-0.785545237
1.840325864	-6.03672948	-0.811706487
1.977972635	-5.731418015	-0.839710777
1.291893842	-5.713011744	-0.859598231
1.453348356	-5.487865973	-0.887479632
1.543268624	-5.071826574	-0.880212058
1.623881134	-4.706992928	-0.877704491
1.045687889	-4.639292548	-0.87772217
1.146486597	-4.340169167	-0.872256155
1.235409921	-4.069763885	-0.868945385
1.322538228	-3.832867105	-0.870420485
0.854428626	-3.81121453	-0.872123051
0.946460805	-3.59386696	-0.86613384
1.028646255	-3.38990717	-0.862399007
1.103858372	-3.20237007	-0.861015207
0.719797949	-3.228900392	-0.871397429
0.803323476	-3.060108055	-0.865337957
0.883276948	-2.913587279	-0.864902508
0.946217265	-2.743488161	-0.857100753
3.426876557	-9.924054927	1.637539353
2.247216055	-9.929404438	1.503873449
2.634373926	-9.939572641	1.417522097
3.022663542	-9.923028449	1.329203744
3.42860285	-9.94592984	1.247394564
2.245984383	-9.923961904	1.12548117
2.057196921	-7.771724258	0.809098577
3.049955907	-10.02580747	0.956287281
3.457986651	-10.0471017	0.868910276
2.265253255	-10.02942747	0.758495496
2.025503004	-7.65631184	0.508258189
3.037424457	-9.997144689	0.571351556
3.453576104	-10.05138574	0.480390896
1.794219498	-7.955550401	0.30317716
2.027178659	-7.678904969	0.21906516
3.074716017	-10.13514509	0.19134322
3.48580326	-10.14863909	0.093082597
2.282573214	-10.13821856	0.00707361
2.047427029	-7.762193061	-0.072018158
3.074002376	-10.14681521	-0.193577392
3.469628748	-10.12166926	-0.298499716
1.785201116	-7.944631912	-0.292888304
2.065039397	-7.843395501	-0.367311206
2.832579611	-9.365228824	-0.537944491
2.958361859	-8.639529886	-0.589419481
1.873946454	-8.360034337	-0.621490308
2.052225889	-7.809672955	-0.663161151
2.2041653	-7.302707256	-0.698372881
2.349442396	-6.869078562	-0.736267435
1.505026879	-6.735691502	-0.755380879
1.67409526	-6.385670294	-0.785190946
1.820937919	-6.03949813	-0.811323824
1.957176881	-5.728085649	-0.838338915
1.273068871	-5.711153901	-0.85872699
1.437504903	-5.496122556	-0.888097494
1.530828302	-5.086928602	-0.882013728
1.608796009	-4.710088751	-0.877357293
1.033156091	-4.650159064	-0.879174142
1.133661383	-4.345565747	-0.872637625
1.22460847	-4.079165078	-0.870146417
1.312037184	-3.840607404	-0.871260017
0.840626172	-3.804288165	-0.869943846
0.938127018	-3.607121853	-0.86863056
1.014052167	-3.379087779	-0.858850983
1.097158696	-3.214914006	-0.863478786
0.717151249	-3.264150738	-0.880312617
0.795383723	-3.068160411	-0.866920877
0.861902711	-2.874819716	-0.852605353
0.937485999	-2.74547064	-0.856817512
3.398012083	-9.939195529	1.63830992
2.215234592	-9.929493455	1.502850514
2.600355419	-9.934191287	1.415610218
2.993922493	-9.93795272	1.329966325
3.399676972	-9.961101392	1.247983339
2.215094591	-9.928865552	1.125261347
2.033343931	-7.777999295	0.809098578
3.014879252	-10.02081293	0.954924123
3.424896057	-10.05105867	0.86833974
2.233172439	-10.03048862	0.758054122
2.001499483	-7.660558602	0.508130098
3.007601378	-10.00928557	0.57151535
3.418862013	-10.05058471	0.479849031
1.773924059	-7.979552125	0.303882998
2.007645573	-7.700564909	0.219506324
3.045905903	-10.15219168	0.191487717
3.453363411	-10.15549882	0.0930479
2.249509015	-10.13638725	0.007067483
2.021334747	-7.759728909	-0.071937423
3.04142315	-10.15140889	-0.193486122
3.439844579	-10.13605285	-0.298611266
1.75844177	-7.939339016	-0.292492916
2.040212493	-7.846793902	-0.367175486
2.803834105	-9.373875043	-0.537944491
2.932483017	-8.650455845	-0.589548287
1.845922537	-8.35503179	-0.620694409
2.028006208	-7.814967741	-0.663079313
2.18032654	-7.30466358	-0.697917024
2.326442857	-6.870599987	-0.73566203
1.483072273	-6.73445279	-0.754728091
1.650265624	-6.374433814	-0.783183044
1.79758262	-6.028898081	-0.809155169
1.931976798	-5.711543832	-0.835046475
1.255329008	-5.71406627	-0.858581792
1.421624605	-5.504333282	-0.888715296
1.516621461	-5.096328514	-0.882832695
1.591814473	-4.707538708	-0.875968505
1.015940022	-4.639857751	-0.876633194
1.121793294	-4.354726867	-0.873782092
1.207626772	-4.067875247	-0.866943625
1.298682	-3.839983618	-0.870210616
0.831027335	-3.816385611	-0.872123053
0.925844889	-3.605266393	-0.867495687
1.011420287	-3.408264181	-0.865473951
1.082947368	-3.205410287	-0.860029765
0.700381459	-3.235146467	-0.87190687
0.785967012	-3.070586214	-0.866920878
0.854719414	-2.882984005	-0.854244958
0.944722061	-2.794669387	-0.871263054
3.361801436	-9.932728142	1.635535922
2.18263664	-9.926580716	1.501389245
2.567138356	-9.931572173	1.414108062
2.960020805	-9.935684537	1.328441162
3.360200334	-9.945142525	1.244686487
2.182274869	-9.924936683	1.12405197
2.0069848	-7.77456681	0.808097219
2.98241774	-10.02428837	0.954378919
3.390539442	-10.05113074	0.867443167
2.201747585	-10.03437116	0.757833407
1.977987931	-7.666663055	0.508130098
2.97687915	-10.01846569	0.57151535
3.377809065	-10.0307306	0.478404124
1.750718068	-7.990813185	0.304105889
1.981768049	-7.697975229	0.219258175
3.00791994	-10.13848363	0.191054212
3.41453392	-10.14330071	0.092839723
2.214554467	-10.12565668	0.007055231
1.99776791	-7.766861994	-0.071946394
3.003448443	-10.13768479	-0.193047998
3.408094863	-10.14466328	-0.298555506
1.733436655	-7.941767492	-0.292385062
1.994517168	-7.768835234	-0.363239523
2.772513603	-9.373815567	-0.537450428
2.904025176	-8.653735625	-0.589161811
1.83322387	-8.420102794	-0.625107834
2.002041656	-7.813428904	-0.662424496
2.156214483	-7.305587943	-0.697369974
2.304720744	-6.875818706	-0.735460268
1.461139422	-6.733142017	-0.7540753
1.631193269	-6.381390982	-0.783419258
1.777114375	-6.027725491	-0.808262173
1.910985254	-5.707112142	-0.833537464
1.238630022	-5.721758865	-0.859162639
1.403266058	-5.502924692	-0.887788563
1.501535968	-5.102850142	-0.883160282
1.574238417	-4.703061649	-0.874232521
1.003566892	-4.65160436	-0.87826666
1.107943935	-4.356245152	-0.873400563
1.195416941	-4.072501182	-0.867143835
1.283791124	-3.834678361	-0.868111698
0.819929135	-3.821779835	-0.872776854
0.91813055	-3.621306532	-0.870673331
1.003421163	-3.419741941	-0.867602731
1.077104257	-3.220666441	-0.86323244
0.689847738	-3.23444286	-0.871142738
0.776306558	-3.07204798	-0.866657068
0.845870495	-2.885592537	-0.854244956
0.921839795	-2.754809109	-0.857950534
3.322837261	-9.917699036	1.631375039
2.151752984	-9.931296827	1.501096945
2.535186925	-9.933641723	1.413288617
2.928123185	-9.939961809	1.327805657
3.318333757	-9.921500281	1.240447642
2.156445638	-9.952955369	1.126470725
1.978208458	-7.761404869	0.806094504
2.951930734	-10.03434646	0.954469757
3.353689184	-10.04352421	0.865894639
2.167791023	-10.02645717	0.756729887
1.954703947	-7.673662465	0.508194114
2.946128949	-10.02755084	0.57151535
3.345439769	-10.03630755	0.478178342
1.728092219	-8.004938552	0.304440242
1.958141667	-7.7040191	0.219258175
2.963855179	-10.10353097	0.190223293
3.378973119	-10.14044709	0.092718286
2.180529811	-10.11871739	0.007045702
1.977868067	-7.788461778	-0.072089929
2.96952153	-10.13725627	-0.192865444
3.380109751	-10.16455701	-0.298834366
1.708853361	-7.946070363	-0.29234912
2.600238257	-10.25874712	-0.479282525
2.740659207	-9.371735653	-0.536846573
2.874316323	-8.653133379	-0.588517722
1.80068872	-8.394480746	-0.62279261
1.978061094	-7.819534178	-0.662424496
2.133512116	-7.311212884	-0.697278779
2.2826753	-6.880024048	-0.735157537
1.442138112	-6.745370021	-0.754945706
1.612093608	-6.388291333	-0.783655472
1.759445914	-6.036005635	-0.808644894
1.89190889	-5.708246469	-0.832851532
1.219831821	-5.7197263	-0.858291399
1.388788594	-5.516784826	-0.889333097
1.486700374	-5.110274804	-0.883651664
1.561660644	-4.713478013	-0.875274111
0.989700122	-4.656585053	-0.878629652
1.093139695	-4.353911459	-0.872256155
1.182916987	-4.076149497	-0.867143835
1.269867597	-3.832102396	-0.866642444
0.80799843	-3.823322562	-0.872558939
0.905597567	-3.618437597	-0.869311483
0.997526709	-3.438668021	-0.871623781
1.072700671	-3.240517267	-0.867666848
0.678728508	-3.230865976	-0.869614416
0.766878	-3.07441515	-0.866657067
0.83540709	-2.88263053	-0.852605351
0.910669912	-2.749430686	-0.855401305
3.287729473	-9.913779651	1.629063453
2.119209036	-9.928177008	1.499635559
2.502036834	-9.930805974	1.41178646
2.894562991	-9.938423012	1.326407571
3.28413445	-9.920321257	1.239034655
2.12320308	-9.946888244	1.125041407
1.948075261	-7.742349629	0.803490972
2.912509868	-10.01371188	0.951652602
3.319107201	-10.04240972	0.864916586
2.136188907	-10.02915895	0.75643556
1.93382941	-7.690269126	0.508898581
2.915351017	-10.03654292	0.57151535
3.306808144	-10.02280759	0.47704952
1.703317324	-8.009225287	0.304403079
1.934496916	-7.709990429	0.219258175
2.930894451	-10.10585498	0.190096857
3.343461881	-10.13747082	0.092596849
2.146153307	-10.10970809	0.007034811
1.959556559	-7.816802069	-0.072296258
2.935625534	-10.13671561	-0.19268289
3.340783986	-10.15019133	-0.298109305
1.684467064	-7.951275835	-0.29234912
2.566812885	-10.25892286	-0.478920605
2.70856631	-9.368588977	-0.536187763
2.85243043	-8.676131141	-0.589483854
1.773689232	-8.394111462	-0.62235851
1.953095857	-7.821698324	-0.662097088
2.110243423	-7.314853626	-0.697005312
2.261867452	-6.88794004	-0.735258447
1.417749664	-6.732253596	-0.752987336
1.593687128	-6.398024504	-0.784246033
1.744764396	-6.054717936	-0.810430828
1.87284358	-5.709318226	-0.832165603
1.199227291	-5.708917485	-0.856113385
1.372571611	-5.523896206	-0.889796464
1.471833221	-5.117655982	-0.884143044
1.547192534	-4.718247083	-0.875274112
0.976215231	-4.663449658	-0.879355637
1.080013063	-4.358197135	-0.872446888
1.172027098	-4.085410085	-0.868344869
1.256276738	-3.830406077	-0.865383059
0.796065925	-3.824828012	-0.872340967
0.889587528	-3.601343797	-0.86454502
0.988579328	-3.447316003	-0.873042967
1.063659081	-3.246555896	-0.868405885
0.666854127	-3.223463334	-0.867067211
0.744760541	-3.025240166	-0.852146796
0.836096628	-2.918470543	-0.862443099
0.915375556	-2.792309948	-0.867864098
3.251444338	-9.905982996	1.626135434
2.087315069	-9.927854729	1.498612623
2.469406125	-9.929783562	1.410557413
2.861314323	-9.937724792	1.325136562
3.254302223	-9.932237512	1.239270094
2.089813235	-9.93973721	1.123502294
1.925032264	-7.75118691	0.80379138
2.884251433	-10.03121419	0.952470497
3.284873279	-10.04212531	0.864020013
2.104590894	-10.03176102	0.756141291
1.91215008	-7.703914563	0.509410943
2.886474626	-10.05215773	0.571897536
3.268911284	-10.01106373	0.476010968
1.676893576	-8.005610303	0.304068726
1.91155477	-7.718799831	0.219340891
2.897947463	-10.10807067	0.18997042
3.303966873	-10.12201421	0.09236264
2.114512955	-10.11330871	0.007032769
1.94229062	-7.849956448	-0.072547439
2.902586564	-10.13894578	-0.192555112
3.307151149	-10.15278999	-0.297886205
2.11626151	-10.14287738	-0.372688522
2.534608322	-10.26383973	-0.478784885
2.679262585	-9.374934622	-0.536077971
2.830121782	-8.698126976	-0.590385613
1.750163315	-8.410254521	-0.623154352
1.927420708	-7.820879789	-0.661524109
2.085880297	-7.314589469	-0.696367066
2.243799715	-6.904308827	-0.736267435
1.40152961	-6.757985037	-0.75538088
1.574761954	-6.405776823	-0.784600383
1.726452271	-6.060996146	-0.810558382
1.853483776	-5.709384233	-0.831342464
1.179301828	-5.700943401	-0.854370905
1.353264944	-5.518485764	-0.88825193
1.454237275	-5.115505092	-0.882996489
1.534533854	-4.728591702	-0.876315702
0.962697484	-4.67027509	-0.880081621
1.070368393	-4.37674683	-0.875498707
1.161893257	-4.097469607	-0.870146417
1.251159944	-3.854701317	-0.870000689
0.777665999	-3.794745065	-0.864931633
0.878303928	-3.603109765	-0.864318044
0.979588219	-3.45594146	-0.874462154
1.04711751	-3.229521435	-0.862986036
0.653680583	-3.209385592	-0.862736935
0.744128378	-3.063128625	-0.862172059
0.824255979	-2.910841001	-0.859437118
0.908580311	-2.800578791	-0.869563549
3.212795957	-9.890539198	1.621974553
2.054039042	-9.920650194	1.496566754
2.438694071	-9.936350893	1.4104208
2.82891195	-9.939778316	1.324246902
3.220752296	-9.932729127	1.238092664
2.05668904	-9.933449671	1.122072976
1.904322052	-7.769619041	0.805093145
2.853462339	-10.04001557	0.952470497
3.251593464	-10.04456975	0.863367998
2.071988002	-10.02938057	0.755479202
1.89301692	-7.728160981	0.510627831
2.155484282	-7.5942331	0.431680559
3.235417743	-10.01249049	0.475604584
2.068181735	-10.02685327	0.380596739
1.888576727	-7.727541461	0.219423608
2.868831059	-10.12364775	0.190096857
3.27597123	-10.14161887	0.092449387
2.085290691	-10.12856365	0.007038895
1.926499996	-7.88987804	-0.072861422
2.867383622	-10.13337244	-0.192281289
3.271693654	-10.14956877	-0.297495795
2.086742405	-10.1571541	-0.372976085
2.497667436	-10.24924484	-0.477744338
2.639902277	-9.345635183	-0.533936972
2.806175634	-8.715317633	-0.590965327
1.722150528	-8.404836381	-0.62235851
1.90318201	-7.825787528	-0.661442271
2.062889183	-7.319037338	-0.696184735
2.22230252	-6.910213328	-0.736166525
1.381983068	-6.768097143	-0.75603367
1.552995044	-6.401892815	-0.783537394
1.705430186	-6.057671726	-0.809410277
1.836867771	-5.717872991	-0.831754033
1.162398363	-5.707442695	-0.854806553
1.334701635	-5.515889541	-0.887170762
1.441204685	-5.129439737	-0.884634424
1.523331748	-4.743591572	-0.878225256
0.948364746	-4.673206599	-0.88008162
1.053942121	-4.367605077	-0.873019095
1.147201828	-4.093467722	-0.86854502
1.240523952	-3.862245388	-0.870840281
0.770652266	-3.820073616	-0.870161761
0.867245604	-3.605787588	-0.864318046
0.964525202	-3.443025211	-0.870441105
1.045495046	-3.258558375	-0.869884021
0.645542056	-3.219909218	-0.865029447
0.730005977	-3.045698861	-0.856631804
0.816618002	-2.917987804	-0.860803437
0.895000328	-2.787829466	-0.864748385
3.184856097	-9.907874514	1.623207415
2.023000377	-9.923996573	1.496128301
2.40726566	-9.939934582	1.409874582
2.791957598	-9.925493885	1.321196573
3.189657081	-9.940672179	1.237857225
2.022828891	-9.923156167	1.120204012
1.876266261	-7.758017518	0.803290701
2.819953509	-10.0391347	0.951561764
3.218633565	-10.0478538	0.862797462
2.040413455	-10.03178131	0.755184934
1.872815149	-7.748482967	0.51158848
2.137029937	-7.618115156	0.43266338
3.20742304	-10.0309331	0.476010969
2.036614565	-10.02923394	0.380448115
1.866734842	-7.741073338	0.21964419
2.839646139	-10.1391413	0.190223293
3.241188245	-10.14019158	0.092345295
2.053015044	-10.1290323	0.007034811
1.90275356	-7.897695557	-0.072879363
2.833588684	-10.13249253	-0.192098734
3.234768174	-10.14146418	-0.296965969
2.051608821	-10.14391775	-0.372257163
2.462474729	-10.24131846	-0.477020469
2.613365698	-9.361384861	-0.53437614
2.781847736	-8.731493012	-0.59148061
1.693990323	-8.398347692	-0.621490308
1.87962898	-7.833528093	-0.661605947
2.04069238	-7.326291317	-0.69627593
2.198979946	-6.910362312	-0.735460268
1.362975389	-6.78107594	-0.757012854
1.532422465	-6.402764237	-0.783064967
1.684179003	-6.053320115	-0.808134619
1.81691636	-5.715929406	-0.830656533
1.144882683	-5.710982197	-0.854806553
1.318461093	-5.52284143	-0.887634128
1.428892019	-5.146194306	-0.886763682
1.515630885	-4.769829911	-0.882217992
0.934408329	-4.678022975	-0.880444614
1.042810967	-4.380367234	-0.874926502
1.133068797	-4.09130299	-0.867343988
1.227484402	-3.862305861	-0.87000069
0.757978453	-3.817633474	-0.869072186
0.857528166	-3.614116793	-0.865679892
0.950587709	-3.433795043	-0.86736622
1.034320041	-3.258055604	-0.868898636
0.637532303	-3.231361869	-0.867576652
0.735750837	-3.111755071	-0.87457173
0.81381552	-2.94273073	-0.867361973
0.888766017	-2.797874485	-0.867014374
3.1511498	-9.907242026	1.62151226
1.992349899	-9.929186819	1.495982269
2.373536125	-9.933784524	1.407962705
2.763087449	-9.939747596	1.321959157
3.153435101	-9.932427946	1.235620025
1.994722064	-9.941009828	1.121523302
1.848992336	-7.749220208	0.801788664
2.787542502	-10.04198214	0.951016502
3.182070404	-10.03963026	0.861248934
2.008452232	-10.03212635	0.754743502
1.859219329	-7.796903952	0.514406467
2.116848637	-7.636182584	0.433318614
3.171812012	-10.02548656	0.4752885
2.005443929	-10.03347565	0.380373818
1.845290256	-7.756488663	0.21991992
2.808526354	-10.14780505	0.190223293
3.206143666	-10.13769371	0.092232531
2.022125607	-10.13626389	0.007035492
1.880827182	-7.913223951	-0.072969075
2.802755525	-10.14210153	-0.192116988
3.200631182	-10.14180762	-0.296687079
2.018722136	-10.14134295	-0.371933659
2.423434753	-10.21674897	-0.475527522
2.585429736	-9.372245456	-0.534540827
2.75504667	-8.739985982	-0.591480609
1.569172286	-7.904577629	-0.584591576
1.855587162	-7.839257773	-0.661605946
2.012656371	-7.312354576	-0.69436131
2.175976324	-6.911382386	-0.734854864
1.342357832	-6.786201173	-0.757121634
1.512087321	-6.404536336	-0.782710618
1.661655876	-6.044113268	-0.80622113
1.797885787	-5.716752332	-0.829970604
1.122568861	-5.69020056	-0.851176453
1.298566871	-5.514358026	-0.885626226
1.413357975	-5.151505172	-0.886927475
1.504239011	-4.784791899	-0.884127547
0.919672674	-4.678937802	-0.880081621
1.027123241	-4.373989541	-0.873019094
1.120511595	-4.094759598	-0.867343986
1.213869496	-3.860457439	-0.868741363
0.74701109	-3.823772508	-0.869943847
0.847101931	-3.619575346	-0.866360814
0.936715909	-3.4245116	-0.864291276
1.02054407	-3.249193272	-0.865695962
0.627799885	-3.234251863	-0.867831344
0.729486629	-3.128088264	-0.878529062
0.8025015	-2.936862258	-0.864902507
0.88305354	-2.809737305	-0.869846846
2.737985797	-9.947463015	1.709143326
3.117477539	-9.906495473	1.619817103
1.963028044	-9.941075136	1.496859053
2.342366577	-9.938126243	1.407552981
2.728376177	-9.932874004	1.319925565
3.122055116	-9.939214001	1.235266808
1.966909838	-9.960734066	1.123062414
2.339924379	-9.941751113	1.027895665
2.119237571	-7.726341853	0.731096761
3.147675604	-10.03793309	0.860270881
1.975929578	-10.02943532	0.754081355
1.84648632	-7.850171927	0.517544652
2.09209222	-7.637825763	0.433045595
3.143128185	-10.04184427	0.475604584
1.97426665	-10.03761957	0.38029952
1.82422544	-7.773791729	0.220250786
2.771050472	-10.13322816	0.189789789
3.172637554	-10.1398473	0.092163136
1.991018532	-10.14242016	0.007035492
1.855856171	-7.91603647	-0.072942164
2.772416985	-10.15354677	-0.19217175
3.162947192	-10.1305872	-0.296073568
1.985294278	-10.13571969	-0.3715023
2.390258057	-10.21635459	-0.475165602
2.14915203	-7.885014758	-0.449339295
2.728813943	-8.750302765	-0.591609415
1.545678844	-7.913270381	-0.584880957
1.832207639	-7.847825526	-0.661851517
1.989951537	-7.317534161	-0.694270174
2.151211926	-6.906626917	-0.733644055
1.320582189	-6.785408327	-0.756577622
1.491980905	-6.407211023	-0.782474405
1.645704889	-6.058754396	-0.80749679
1.779750059	-5.720349402	-0.829696242
1.108311117	-5.710129312	-0.853644919
1.283654605	-5.526977455	-0.887016324
1.398579131	-5.159625476	-0.887582649
1.49042975	-4.792205451	-0.884648313
0.904006621	-4.674978807	-0.878811148
1.019679038	-4.402941108	-0.878169114
1.110756423	-4.108582069	-0.869545901
1.201148827	-3.861362163	-0.868111696
0.737118248	-3.835630647	-0.872123053
0.839497573	-3.637340496	-0.869992407
0.925951781	-3.426431337	-0.864054707
