x 	 y 	 z 
-5.913015774	11.78793933	-1.207382778
-6.472025796	11.80864155	-1.365681814
-4.237527909	10.26115165	-1.215050231
-3.780220936	8.281885897	-1.0828265
-3.641316187	7.264552232	-1.045153501
-3.508589291	6.406429055	-1.011603837
-2.561890853	6.212516354	-0.986214767
-2.566981751	5.632450684	-0.96764013
-2.574469244	5.142876035	-0.954900672
-2.56771761	4.689631681	-0.942455997
-1.927845254	4.684248831	-0.934893874
-1.963970267	4.316512723	-0.921467181
-2.010831793	4.023592779	-0.918988313
-2.046056483	3.736414946	-0.914497704
-1.557904174	3.797795951	-0.916579117
-1.62354209	3.575418359	-0.91516027
-1.658894361	3.320249607	-0.903555719
-1.705070647	3.116045406	-0.902895757
-1.396560495	2.797024007	-0.888130556
-1.462592401	2.671804968	-0.899587599
-5.412820022	11.92238257	-0.59297302
-5.879717933	11.79480717	-0.724597389
-6.458533876	11.86042311	-0.871665773
-5.088533248	12.40571865	-0.972679326
-5.616011182	12.38543761	-1.116864197
-5.870166576	11.79265258	-1.20601521
-6.427683615	11.81358531	-1.363966511
-4.213183124	10.291583	-1.217117321
-3.76052825	8.306109889	-1.084480053
-3.620778753	7.279241385	-1.045663717
-3.50926314	6.454583452	-1.017502789
-2.539824167	6.213020052	-0.985053074
-2.55782922	5.658305226	-0.970729141
-2.562629134	5.158701372	-0.956374813
-2.563664901	4.716522831	-0.946275164
-1.913836589	4.691051935	-0.935075371
-1.952737132	4.326991211	-0.922420912
-1.994995773	4.022720927	-0.917386915
-2.037852419	3.74868757	-0.915966957
-1.549186388	3.809790249	-0.918322493
-1.601366853	3.555518848	-0.908804986
-1.652152944	3.33228721	-0.905447985
-1.689951206	3.11104208	-0.899939485
-1.385837482	2.796985653	-0.886764179
-1.453472682	2.674594136	-0.899021115
-5.846161031	11.81816046	-0.724926765
-6.405506971	11.84945619	-0.869411465
-5.05721083	12.43790234	-0.973981628
-5.640940999	12.54258698	-1.129469386
-5.826462082	11.79542827	-1.204465251
-6.446255525	11.93479273	-1.375670838
-4.183831609	10.30998696	-1.217770111
-3.73787521	8.323948407	-1.085306769
-3.5966733	7.286758251	-1.045153501
-3.482857604	6.453116061	-1.015582209
-2.518149974	6.214364274	-0.984036695
-2.538436716	5.661618558	-0.969956904
-2.555077608	5.183350871	-0.959486831
-2.550118079	4.726099335	-0.946622303
-1.900541676	4.699636358	-0.935619859
-1.935843447	4.324898192	-0.92070424
-1.977886024	4.019152369	-0.915185057
-2.026806347	3.755782241	-0.916176825
-1.541139316	3.823577062	-0.920501698
-1.595614927	3.571974658	-0.911755653
-1.639348323	3.332109471	-0.9040288
-1.680398772	3.116212088	-0.899939485
-1.367488185	2.781369529	-0.880478986
-1.447081715	2.682417031	-0.900154081
-5.801076266	11.81811376	-0.723828788
-6.357326831	11.84706882	-0.867801186
-5.513113749	12.35959062	-1.11146199
-5.782795881	11.79804691	-1.202915293
-6.406788915	11.94925282	-1.375065493
-4.159229913	10.34029693	-1.219837318
-3.725248013	8.364404588	-1.0890863
-3.572992132	7.295086043	-1.044770721
-3.469592447	6.475994351	-1.017502789
-2.495385064	6.212879286	-0.982584608
-2.518646383	5.663962801	-0.96903017
-2.542197331	5.197368625	-0.960633385
-2.535606556	4.73390037	-0.946622301
-1.885016876	4.702706494	-0.93507537
-1.922167421	4.329919423	-0.920513504
-1.96726569	4.028723343	-0.915985728
-2.006502184	3.745607562	-0.912188916
-1.52360835	3.81378627	-0.917014947
-1.598455695	3.608018284	-0.919699761
-1.635511467	3.350220145	-0.907576766
-1.67357474	3.126479731	-0.901417621
-1.363166366	2.794197245	-0.883211681
-1.442014616	2.692762156	-0.902136828
-5.755172439	11.81610661	-0.722621019
-6.311098105	11.84802149	-0.866448578
-5.751799383	11.82647896	-1.204009395
-4.12969539	10.35854899	-1.220490108
-3.695556809	8.366710311	-1.087905174
-3.551894849	7.308689865	-1.045153501
-3.452033561	6.490981262	-1.01818872
-2.477776239	6.224182935	-0.983165513
-2.499264313	5.66714326	-0.968257932
-2.525809333	5.204256056	-0.960469592
-2.512749377	4.726005625	-0.943497588
-1.869127935	4.704811845	-0.934349385
-1.910852065	4.340288216	-0.921467178
-1.957032672	4.039148625	-0.916986552
-2.006018409	3.772464081	-0.917226284
-1.507948407	3.808460908	-0.914617825
-1.565049163	3.562081988	-0.906762215
-1.619295565	3.342980051	-0.904265312
-1.665339198	3.134166987	-0.902156717
-1.364646228	2.819146189	-0.88977016
-1.434646822	2.698867245	-0.902703312
-5.722369853	11.84089993	-0.723060245
-6.26912199	11.85674119	-0.865675625
-5.440776718	12.40139958	-1.112198702
-5.687357191	11.7857728	-1.198083262
-4.108124567	10.39705649	-1.223536384
-3.670269052	8.378918361	-1.08802331
-3.532040098	7.324912783	-1.045918826
-3.442738923	6.521689297	-1.021344069
-2.466657681	6.252003139	-0.986359964
-2.474344102	5.657585337	-0.965323357
-2.51411116	5.22086888	-0.96210747
-2.492722397	4.723240494	-0.941414405
-1.849641176	4.697714098	-0.93180844
-1.897134489	4.345230916	-0.921276445
-1.944631598	4.045133416	-0.91698655
-1.986220043	3.763036655	-0.913448243
-1.495900653	3.812160732	-0.91439991
-1.568895974	3.600794366	-0.915387245
-1.615344991	3.36106816	-0.907813335
-1.653455298	3.134975169	-0.900924928
-1.353075645	2.817249947	-0.88785727
-1.417409012	2.686291767	-0.897038369
-5.696808175	11.88090849	-0.724432701
-6.213239109	11.83880693	-0.862970409
-5.14244954	13.10624383	-1.021298776
-5.402703853	12.41803305	-1.112198702
-5.651172498	11.80316574	-1.198083262
-6.437920595	12.27733136	-1.405940937
-4.077657432	10.41331417	-1.223971617
-3.652458188	8.408354868	-1.090385443
-3.503986266	7.324083357	-1.044260504
-3.419496491	6.526079068	-1.02038372
-2.445303375	6.254012492	-0.985488665
-2.459333844	5.670588335	-0.966250031
-2.498081768	5.228557519	-0.962107469
-2.480504994	4.735228024	-0.942282428
-1.835935023	4.705198847	-0.932171432
-1.883794641	4.351030811	-0.921276445
-1.929681364	4.045774582	-0.915785575
-1.977842093	3.775175173	-0.914917498
-1.477477379	3.79944958	-0.910259413
-1.542776859	3.570724006	-0.906535241
-1.605025779	3.366008242	-0.907813336
-1.647425574	3.146902257	-0.902895757
-1.34732259	2.827466592	-0.889770162
-1.407381131	2.687229147	-0.895905402
-5.647034266	11.87037835	-0.722730869
-6.197174212	11.89675492	-0.865804431
-6.720424142	17.28369105	-1.345211754
-5.338128936	12.37323783	-1.106714599
-5.578615277	11.74398944	-1.190333705
-6.391037507	12.2793748	-1.403922844
-4.064390796	10.47396479	-1.229629051
-3.618788037	8.401281241	-1.088023311
-3.481925209	7.335694924	-1.044388059
-3.399915625	6.537417595	-1.020520929
-2.428964475	6.268865801	-0.986650358
-2.435679799	5.663585002	-0.963778823
-2.481183935	5.234413978	-0.961779882
-2.46641999	4.743689621	-0.942455997
-1.816880571	4.698885224	-0.929811922
-1.869275173	4.354083488	-0.920704239
-1.908040389	4.032192466	-0.911381748
-1.964446544	3.777755523	-0.914077908
-1.464410198	3.800321703	-0.909387696
-1.534115894	3.580811511	-0.907897087
-1.599262022	3.38057786	-0.910415198
-1.639550647	3.155381594	-0.903881199
-1.342341875	2.839413479	-0.892229625
-1.400457144	2.694087177	-0.896755126
-5.616129892	11.89938596	-0.723444516
-6.147355612	11.89000404	-0.86393654
-6.663422391	17.29398909	-1.344415912
-5.291519417	12.36939755	-1.104913824
-5.544256661	11.76465315	-1.190698367
-6.374795666	12.34046813	-1.408665226
-4.037589649	10.50030256	-1.231261026
-3.587925587	8.400472632	-1.086487895
-3.46447386	7.357110574	-1.045918826
-3.392110422	6.57158308	-1.024224882
-2.415394591	6.291066567	-0.98897351
-2.415192498	5.663760305	-0.962543218
-2.458816185	5.228610644	-0.959323037
-2.452758337	4.752984536	-0.942803195
-1.801752307	4.702600778	-0.929448931
-1.856677192	4.361604448	-0.92108571
-1.897326247	4.041574652	-0.912182475
-1.97302596	3.822861911	-0.923523038
-1.460402943	3.824855534	-0.914181996
-1.52464604	3.589086868	-0.908804986
-1.589295774	3.386347971	-0.91065171
-1.631639277	3.163842357	-0.904866642
-1.389546825	2.69325741	-0.895055679
-5.629981578	12.02416949	-0.729977364
-6.060733468	11.81114423	-0.856851396
-6.598594347	17.28360324	-1.34202827
-5.288182474	12.46723263	-1.112198702
-5.500545949	11.76536919	-1.189057331
-6.357331382	12.39980701	-1.41320567
-4.003232567	10.50706652	-1.230608236
-3.56949387	8.428813417	-1.088731891
-3.45238109	7.390169946	-1.049108031
-3.375094561	6.588130197	-1.025185231
-2.393620034	6.291974043	-0.987957131
-2.403960923	5.685703551	-0.965014428
-2.443180538	5.237023561	-0.95948683
-2.441307228	4.766622763	-0.944018354
-1.790108666	4.71546146	-0.930900959
-1.844050662	4.369088539	-0.921467178
-1.888640563	4.055369786	-0.913984023
-1.962179671	3.830637702	-0.923942834
-1.445208267	3.820189621	-0.91200279
-1.518164105	3.604517957	-0.91152868
-1.576438563	3.385922828	-0.909232523
-1.620600364	3.166245165	-0.904127546
-1.379092021	2.693239474	-0.893639414
-5.614938005	12.08847514	-0.732832069
-6.013600276	11.80834025	-0.855305549
-6.540244635	17.28977258	-1.340943107
-5.316363106	12.64141541	-1.126277082
-5.459396451	11.77134791	-1.187963228
-6.363023911	12.50526395	-1.422992991
-3.976595505	10.53417939	-1.232349049
-3.552075268	8.459867742	-1.091330297
-3.452628981	7.450221001	-1.056124212
-3.355764297	6.600220129	-1.025459533
-2.368372935	6.283549213	-0.985488665
-2.387270098	5.694874094	-0.965323357
-2.426687889	5.243599533	-0.959323038
-2.427118272	4.774967908	-0.944191981
-1.775633344	4.720931033	-0.930900958
-1.833290417	4.381064282	-0.922802381
-1.877422748	4.063813674	-0.914584542
-1.946430682	3.828795254	-0.922053842
-1.430056039	3.815466585	-0.909823526
-1.504846769	3.603766459	-0.910166832
-1.564821115	3.388097212	-0.90852293
-1.606050527	3.161697144	-0.90141762
-1.364305303	2.684633232	-0.889390736
-5.48548081	11.90522919	-0.720699603
-5.979595056	11.83118755	-0.855627593
-6.475969287	17.27987002	-1.338627825
-5.279856076	12.66318516	-1.126768223
-5.474450913	11.89931812	-1.199177365
-6.338530422	12.55225715	-1.426120923
-3.948088781	10.55657193	-1.233545792
-3.531828134	8.48447652	-1.093101984
-3.429341495	7.459877361	-1.055996658
-3.320327818	6.580416627	-1.020795232
-2.342854053	6.274101921	-0.982875003
-2.368649816	5.69943443	-0.964859991
-2.404415606	5.237571579	-0.956866193
-2.415118633	4.787667335	-0.945233571
-1.762171549	4.729120832	-0.931445446
-1.82548317	4.400269196	-0.925663467
-1.877191477	4.096274725	-0.92058965
-1.937757638	3.840859318	-0.923523038
-1.422420322	3.830815153	-0.912438619
-1.49527361	3.611965749	-0.911074731
-1.55199105	3.38758205	-0.907103743
-1.591980289	3.157955246	-0.898954099
-1.365131791	2.706788491	-0.895338918
-5.444364488	11.91201271	-0.720095748
-5.945058799	11.85304524	-0.855885264
-6.425702005	17.30713728	-1.339206705
-5.348344362	12.93906369	-1.149850361
-6.03574629	13.22607157	-1.331011157
-6.038791422	12.05042062	-1.366993474
-3.930188358	10.60778487	-1.238115322
-3.505781533	8.49527262	-1.093101985
-3.411788325	7.482095359	-1.05765498
-3.301454426	6.593229084	-1.021206859
-2.327370221	6.291467537	-0.984472287
-2.355669386	5.717636459	-0.966713398
-2.387109209	5.242230334	-0.956374813
-2.400859885	4.795934852	-0.945407141
-1.74867615	4.737272829	-0.931989936
-1.815335057	4.414019425	-0.927380138
-1.871913347	4.118069706	-0.924192752
-1.920712309	3.836294921	-0.921004383
-1.409313144	3.831497263	-0.911566903
-1.476790085	3.59851647	-0.90653524
-1.535561077	3.379058939	-0.903555718
-1.586186894	3.170625396	-0.901171274
-1.333642209	2.664652047	-0.880043653
-5.404495205	11.92138484	-0.719656581
-5.904219857	11.86229471	-0.855241176
-6.366032933	17.30898281	-1.337831983
-5.322982572	12.99045526	-1.152960769
-6.018137623	13.29533138	-1.336116771
-5.84585599	11.75532	-1.331476616
-3.900707956	10.62819067	-1.239094506
-3.480829803	8.508745074	-1.093456275
-3.397809627	7.512408466	-1.060461406
-3.281651837	6.604214116	-1.021344069
-2.308397852	6.299507053	-0.984617483
-2.342226002	5.734898022	-0.968412369
-2.383603054	5.277399354	-0.961452294
-2.391830761	4.814744094	-0.947663893
-1.73649813	4.749080135	-0.933260408
-1.801784528	4.419568379	-0.92738014
-1.843162405	4.088066174	-0.916185881
-1.914154083	3.85267683	-0.923523038
-1.402897299	3.850475	-0.915053656
-1.462807227	3.595813276	-0.904719444
-1.529578934	3.393497741	-0.906157579
-1.573004447	3.168532222	-0.899200447
-1.347217797	2.712536997	-0.894489194
-5.365438557	11.9324453	-0.719327147
-5.86824052	11.88124716	-0.855305549
-6.310509975	17.32187321	-1.337325582
-6.347525189	15.62727637	-1.385255329
-5.989963777	13.34189501	-1.338943104
-5.812405567	11.77855235	-1.332082079
-3.873177348	10.65412148	-1.240726363
-3.460679638	8.53410733	-1.095346099
-3.384083037	7.543611198	-1.063395503
-3.251737581	6.594705941	-1.01832593
-2.2860223	6.298188998	-0.98331071
-2.323879111	5.740225168	-0.968103438
-2.366997804	5.283787274	-0.961288502
-2.374000077	4.815876322	-0.946448734
-1.725268664	4.76363151	-0.93507537
-1.786745832	4.421434576	-0.926617199
-1.84301046	4.121428408	-0.922391202
-1.910107495	3.874316151	-0.927301079
-1.397372058	3.872203001	-0.919194208
-1.450675856	3.597574549	-0.904038521
-1.502505778	3.360919741	-0.896223213
-1.56927221	3.185514952	-0.902649411
-1.350336596	2.739884111	-0.902136828
-5.32514509	11.94064221	-0.718833084
-5.823857069	11.88306526	-0.854146179
-6.25192096	17.3261418	-1.336167941
-6.34012406	15.74745049	-1.394177191
-5.942521993	13.34565331	-1.33748434
-5.771429372	11.78650048	-1.330972123
-3.836431626	10.65473069	-1.239420901
-3.437073409	8.551133863	-1.096172816
-3.368584141	7.571175509	-1.065819266
-3.238455308	6.618887089	-1.020520929
-2.275726231	6.33031189	-0.987231147
-2.305889421	5.746410958	-0.967949003
-2.349174087	5.287417963	-0.960633385
-2.359646631	4.824021686	-0.946622303
-1.710313902	4.767976537	-0.934893874
-1.758937601	4.391356351	-0.919178301
-1.832740711	4.132436828	-0.923592234
-1.8844633	3.852053835	-0.920584588
-1.378259455	3.856253339	-0.914399911
-1.442161926	3.608338592	-0.905627342
-1.499670098	3.382389864	-0.900717343
-1.542466783	3.155485627	-0.892795154
-1.341503113	2.743152404	-0.901853529
-5.280004681	11.93774726	-0.717680211
-5.792609676	11.91164568	-0.854919073
-6.181953178	17.29828053	-1.332550416
-6.25927575	15.68536922	-1.386974208
-6.029074888	13.65259739	-1.366385679
-5.723502463	11.77999025	-1.328247833
-3.804059217	10.66738708	-1.239529621
-3.412292777	8.56532833	-1.096645242
-3.349744615	7.591455981	-1.067222479
-3.217268404	6.627009141	-1.020246511
-2.260276499	6.348448556	-0.98897351
-2.285327712	5.746113535	-0.966713397
-2.330156939	5.28828093	-0.95948683
-2.353435787	4.848957738	-0.950094272
-1.693702719	4.767641285	-0.933804896
-1.736039518	4.373010084	-0.914219074
-1.815714861	4.128174847	-0.921390378
-1.874771342	3.862215065	-0.921634048
-1.363491302	3.852183227	-0.912438619
-1.428215545	3.605502607	-0.903811547
-1.470513562	3.344282105	-0.889363734
-1.534470442	3.163691051	-0.893780596
-1.313402906	2.706702092	-0.88854101
-5.241751317	11.95023256	-0.717460627
-5.887438644	12.20168863	-0.874435422
-6.122863954	17.30024008	-1.331248054
-6.226518899	15.7434236	-1.390412084
-5.990357025	13.6783271	-1.367115001
-5.699863872	11.82348434	-1.331173944
-3.77429343	10.68744339	-1.240508806
-3.384904602	8.57298571	-1.096290951
-3.329619389	7.608966356	-1.06824303
-3.198211663	6.639525554	-1.020658139
-2.243421278	6.362818096	-0.990135204
-2.265514438	5.747583136	-0.965786666
-2.309971862	5.286365687	-0.957848897
-2.33983028	4.858816973	-0.950615038
-1.67221455	4.753334105	-0.929993418
-1.726568611	4.38836414	-0.916317218
-1.802649584	4.132828124	-0.921190168
-1.858670817	3.859139585	-0.919535128
-1.353926263	3.862795513	-0.913964081
-1.418215019	3.612587068	-0.904492471
-1.46568366	3.361246483	-0.892675188
-1.510888081	3.139564333	-0.88565082
-1.322565973	2.747011619	-0.900437323
-5.205860297	11.96808928	-0.717570419
-5.672874341	11.84975457	-0.847962793
-6.0618421	17.29635302	-1.329511652
-6.163277887	15.72440811	-1.387056105
-5.793655471	13.34040968	-1.331558208
-5.679017293	11.87322626	-1.33480637
-3.76084739	10.75433502	-1.246927869
-3.353883207	8.571308874	-1.094755536
-3.306259858	7.61914569	-1.06824303
-3.186796372	6.668074488	-1.023538952
-2.219976161	6.358461648	-0.988392723
-2.248589399	5.756346783	-0.966095595
-2.290604642	5.286185979	-0.956538606
-2.322789769	4.86152967	-0.949747075
-1.663446716	4.775158185	-0.933260409
-1.726291271	4.427479805	-0.923374587
-1.789961681	4.13833907	-0.921190168
-1.849773282	3.87099917	-0.921004384
-1.338549031	3.856788942	-0.911566902
-1.403593967	3.607844625	-0.902222725
-1.46153464	3.37999644	-0.896459725
-1.508347952	3.159053231	-0.889838882
-5.172282018	11.99133842	-0.718009645
-5.611232795	11.81391906	-0.84416258
-5.996323192	17.27906434	-1.326762328
-6.125110915	15.76925482	-1.389347903
-5.737338677	13.32245128	-1.328002552
-5.652800703	11.91216527	-1.337227987
-3.733039954	10.78085227	-1.248668682
-3.327571087	8.581558089	-1.094755536
-3.28012474	7.622875655	-1.067350033
-3.16462662	6.674240043	-1.022990232
-2.202721085	6.37178812	-0.989409218
-2.231631735	5.765061182	-0.966404526
-2.277881267	5.30134597	-0.95801269
-2.301958047	4.856174108	-0.947316695
-1.647506277	4.776520587	-0.932534425
-1.712699832	4.432755151	-0.923374587
-1.770305585	4.127603061	-0.917587066
-1.839563848	3.880189951	-0.921843917
-1.321635642	3.846109476	-0.90808015
-1.385161934	3.593050783	-0.897456318
-1.465325026	3.417505475	-0.905211474
-1.493670159	3.153155365	-0.88688261
-5.140180589	12.01816704	-0.718668396
-5.569432099	11.81934362	-0.843325254
-5.941663274	17.2926627	-1.326400647
-6.077776783	15.79076262	-1.389593474
-5.680795939	13.30335739	-1.324355702
-6.273919764	13.3264565	-1.493824767
-3.710263366	10.82234449	-1.252150188
-3.305857619	8.603777221	-1.096290953
-3.248938084	7.614657844	-1.064798716
-3.146243555	6.688399129	-1.023676161
-2.178356349	6.364474583	-0.987231146
-2.214995954	5.774648067	-0.966867834
-2.259286196	5.302863975	-0.957029986
-2.286210482	4.861431335	-0.946969499
-1.633162141	4.78248292	-0.93271592
-1.699794226	4.439822314	-0.923756057
-1.754183165	4.124900643	-0.915785576
-1.829731583	3.890238859	-0.922893374
-1.305114666	3.836286759	-0.90481137
-1.373437109	3.595463939	-0.89700237
-1.462816572	3.440762396	-0.910178628
-1.500890387	3.193685985	-0.896983214
-5.114200398	12.05961965	-0.72020554
-5.51666284	11.80111738	-0.840813216
-5.885370174	17.30136813	-1.325677166
-6.022910085	15.79257263	-1.388120167
-5.653155811	13.35190224	-1.327455501
-6.302471504	13.49437774	-1.510473298
-3.68279444	10.8506201	-1.254108558
-3.275559435	8.603670241	-1.09499169
-3.226720572	7.627330125	-1.065181378
-3.122776808	6.691736707	-1.022715812
-2.160090335	6.374876392	-0.987811935
-2.198322055	5.784187137	-0.967331201
-2.241471063	5.306135637	-0.956374813
-2.262125053	4.848787925	-0.94315039
-1.61281305	4.770702025	-0.92944893
-1.685120645	4.442263066	-0.923183853
-1.741900535	4.131165469	-0.915985727
-1.814480538	3.888746214	-0.921214253
-1.294273499	3.843047597	-0.905465116
-1.363778795	3.603304069	-0.897910267
-5.080273788	12.08261614	-0.720644707
-5.506460953	11.87411614	-0.844806668
-5.828761383	17.30894574	-1.324881324
-5.981828773	15.83055492	-1.389839045
-5.599446584	13.33888203	-1.324446779
-6.252676634	13.49559511	-1.508455323
-3.651387532	10.86752162	-1.254761348
-3.257559616	8.635977101	-1.097826367
-3.200619764	7.630791204	-1.064288382
-3.103064317	6.703083555	-1.022990231
-2.140836998	6.382411349	-0.987957132
-2.180914317	5.791828748	-0.967485636
-2.235471063	5.337555327	-0.96079718
-2.249306687	4.860174074	-0.944018354
-1.592239576	4.757909166	-0.926000503
-1.671138616	4.446493252	-0.922993119
-1.733374852	4.146433776	-0.918187585
-1.802541582	3.894294373	-0.921214251
-1.352375739	3.606559268	-0.897683294
-5.051249129	12.11749957	-0.72179758
-5.509625408	11.97708157	-0.850925681
-5.765537877	17.29646702	-1.322566041
-5.938474398	15.86283269	-1.3910669
-5.691652938	13.67594647	-1.35617445
-6.206673211	13.50477122	-1.507345366
-3.615205785	10.87018325	-1.253782163
-3.232439926	8.649651429	-1.098298794
-3.169196565	7.621342731	-1.061609511
-3.082898461	6.713472277	-1.02312744
-2.127169537	6.406789997	-0.990715991
-2.162098975	5.795715616	-0.967022329
-2.223246257	5.354410355	-0.96259885
-2.23890504	4.876897292	-0.945927967
-1.575161283	4.755303819	-0.924548534
-1.657489185	4.451599257	-0.922993118
-1.727022526	4.167118801	-0.921590531
-1.79140144	3.901583283	-0.921634046
-1.346391708	3.624385512	-0.901087911
-5.038837072	12.19292119	-0.725365932
-5.436399227	11.91403552	-0.845257518
-5.704320875	17.28944845	-1.320684919
-5.890473262	15.88284657	-1.391230575
-5.697904685	13.81025437	-1.367753248
-6.151593299	13.49387567	-1.504015731
-3.584325958	10.88877734	-1.254652511
-3.209680116	8.669771047	-1.099597937
-3.141263401	7.6200261	-1.060078743
-3.074194691	6.7490407	-1.027105812
-2.106577174	6.410466177	-0.990280401
-2.147732532	5.811588617	-0.968566804
-2.207935176	5.363942453	-0.96309023
-2.226789264	4.890016886	-0.947143126
-1.559339413	4.756376205	-0.92382255
-1.64484315	4.459426438	-0.923565324
-1.707527789	4.156084942	-0.91798743
-1.78428602	3.917738327	-0.924152702
-1.334256838	3.625757156	-0.900406987
-4.999135203	12.202779	-0.725036556
-5.398998883	11.92883919	-0.845128712
-5.647226094	17.29454289	-1.319744358
-5.867150844	15.97007102	-1.397287599
-5.640052414	13.78988046	-1.364015203
-6.08106206	13.44832106	-1.496851848
-3.555521527	10.91390067	-1.256284486
-3.178280029	8.666526005	-1.097944504
-3.114494012	7.621364364	-1.058930639
-3.053882418	6.759343274	-1.027243022
-2.084758111	6.410312773	-0.989264022
-2.129213558	5.816294924	-0.968257932
-2.190723001	5.368864346	-0.962762643
-2.212992499	4.899518074	-0.947663893
-1.543525841	4.757396029	-0.923096564
-1.634186003	4.472749992	-0.925281997
-1.702899214	4.181266713	-0.9223912
-1.774270805	3.927649016	-0.92520216
-1.325795162	3.637153684	-0.902222726
-4.981961089	12.26801512	-0.728001053
-5.361558598	11.94352683	-0.844999906
-5.581260193	17.2719268	-1.316705713
-5.820513485	15.99455264	-1.39786052
-5.628399991	13.88279387	-1.371491293
-5.922113877	13.20456655	-1.467691707
-3.531782014	10.95503275	-1.259765993
-3.152693545	8.679036026	-1.098298794
-3.088118306	7.623529329	-1.057910088
-3.032725528	6.767776489	-1.027105812
-2.063869307	6.412911095	-0.988683116
-2.110685769	5.820942458	-0.967949003
-2.172761762	5.371902114	-0.962107469
-2.199561319	4.909879317	-0.948358287
-1.528622389	4.761172813	-0.922915068
-1.627470988	4.497126503	-0.929287547
-1.69299746	4.193739672	-0.923992598
-1.76261239	3.933966561	-0.925412089
-1.317937626	3.650364203	-0.90449247
-4.942435764	12.27861082	-0.727726573
-5.516397645	17.25191749	-1.313884029
-5.776146822	16.02545954	-1.399006477
-5.575755844	13.87504826	-1.369029622
-5.881979302	13.22358206	-1.467792558
-3.498760105	10.96771044	-1.25998355
-3.126724162	8.69053647	-1.098535067
-3.060280429	7.621922855	-1.056379321
-3.014361806	6.78247996	-1.027928952
-2.048988605	6.434297177	-0.991006387
-2.091481585	5.82367108	-0.9673312
-2.158473406	5.384036843	-0.963090231
-2.182887986	4.913004389	-0.947663892
-1.513710416	4.76490276	-0.922733513
-1.614659964	4.504870805	-0.929859753
-1.683763083	4.208010634	-0.925994302
-1.74378517	3.924166365	-0.921843916
-1.301485574	3.639717705	-0.900860935
-5.462240048	17.26495624	-1.313594589
-5.70115387	15.9708308	-1.392703883
-5.529476565	13.88283739	-1.368117909
-5.81648614	13.18512854	-1.461536811
-3.468685481	10.98976884	-1.261289131
-3.100714004	8.701959079	-1.098771222
-3.032115005	7.619295821	-1.054720883
-2.990742714	6.78535104	-1.026968603
-2.032509255	6.450933384	-0.99260367
-2.073273982	5.829129479	-0.967176765
-2.14012387	5.386049612	-0.962271263
-2.16899613	4.922382068	-0.948184717
-1.500264188	4.773276993	-0.923459556
-1.60214516	4.513503331	-0.93062275
-1.667955657	4.205870149	-0.924392903
-1.729371998	3.924129716	-0.920584589
-1.290638131	3.644611671	-0.901087911
-5.236195377	11.95763019	-0.842552301
-5.422355092	17.32351521	-1.316778073
-5.642495923	15.96099748	-1.390330188
-5.487224218	13.9006624	-1.368209104
-5.768031901	13.18468213	-1.459518837
-3.435842042	11.00320547	-1.261615526
-3.071028145	8.703003216	-1.097708232
-3.004722102	7.618412926	-1.05331767
-2.969118081	6.792679443	-1.026694184
-2.016536242	6.469418192	-0.994491232
-2.055380609	5.835462756	-0.967176765
-2.117806135	5.377903705	-0.959650624
-2.149546578	4.919086689	-0.946275163
-1.489408791	4.790064912	-0.925819007
-1.589918117	4.523027894	-0.931576425
-1.652894043	4.205496674	-0.923191871
-1.717324847	3.92941679	-0.920584589
-5.195112906	11.96357017	-0.841843781
-5.347055859	17.26861307	-1.311351785
-5.595148068	15.98293618	-1.390739433
-5.445277563	13.91928694	-1.368391376
-5.723991345	13.19410181	-1.458610701
-3.406469207	11.02794161	-1.263247501
-3.048899184	8.725507304	-1.099361783
-2.975557787	7.612814938	-1.051276686
-2.945112923	6.794485923	-1.025596743
-1.988224532	6.448155189	-0.9902804
-2.038769667	5.845472336	-0.967794566
-2.100579625	5.382537852	-0.959323038
-2.133270222	4.922947524	-0.945754339
-1.483668127	4.823749927	-0.931445447
-1.579906447	4.539009661	-0.933865304
-1.639628345	4.20963489	-0.922991718
-1.701762295	3.926593172	-0.91869554
-5.159174155	11.98128455	-0.841972586
-5.546739714	16.00191029	-1.390903108
-5.398228783	13.92478451	-1.367297391
-5.853722728	13.60732661	-1.502300428
-3.370005739	11.02978423	-1.262268316
-3.025686841	8.745143107	-1.100660927
-2.948247446	7.611734378	-1.049873356
-2.925427274	6.806219527	-1.026008254
-1.96612333	6.446654125	-0.989118708
-2.021793934	5.854501422	-0.968257933
-2.078363278	5.374235753	-0.956702401
-2.118934426	4.931278555	-0.946101535
-1.470293228	4.832983107	-0.932352928
-1.566613277	4.545691553	-0.934246775
-1.623530616	4.206419182	-0.921190169
-1.688163541	3.928202072	-0.917856005
-5.128661423	12.01174131	-0.843003151
-5.490503104	15.99811198	-1.38910245
-5.334056341	13.88550456	-1.361827116
-5.821707216	13.64809996	-1.504822897
-3.338739016	11.04863603	-1.263247502
-2.995946579	8.745929908	-1.099597938
-2.921327186	7.611483868	-1.048597697
-2.901813755	6.808783885	-1.025048022
-1.946050397	6.451708528	-0.988973511
-2.004462222	5.862546205	-0.968566804
-2.062924482	5.383349999	-0.95719378
-2.10649771	4.944098377	-0.947316697
-1.456025618	4.839354684	-0.932715921
-1.543466955	4.523533738	-0.928715341
-1.610267825	4.210465088	-0.920990015
-1.67265442	3.925267977	-0.915966958
-5.09567636	12.03660893	-0.843647298
-5.439151203	16.0082768	-1.388529412
-5.286825947	13.8897049	-1.360641818
-5.773219441	13.65031946	-1.503107595
-3.311372986	11.08073284	-1.265749823
-2.959213953	8.725927936	-1.095936661
-2.892673648	7.606504917	-1.046684268
-2.879368794	6.814004559	-1.0244993
-1.928510231	6.465233372	-0.990135204
-1.987417063	5.871475887	-0.969030171
-2.048149707	5.394265127	-0.95801269
-2.093618795	4.955980586	-0.948358286
-1.441171779	4.843798785	-0.93271592
-1.499423577	4.438966401	-0.910404259
-1.594912565	4.208971917	-0.919588827
-1.660984607	3.931281575	-0.916176825
-5.061814466	12.05954665	-0.84416258
-5.376350413	15.98426898	-1.385009877
-5.243485138	13.90399546	-1.360459546
-5.730159568	13.66521459	-1.502804922
-3.28017931	11.10037315	-1.266837846
-2.934325456	8.740613381	-1.096645242
-2.865826394	7.606062472	-1.045408609
-2.846967308	6.795398489	-1.02038372
-1.909225838	6.473017482	-0.990425598
-1.968452605	5.874735389	-0.968566805
-2.036453642	5.413449917	-0.960305799
-2.08220884	4.971464196	-0.950094272
-1.425471829	4.845366982	-0.932171431
-1.478949509	4.423063975	-0.906207971
-1.581647781	4.212928376	-0.919388619
-1.649671293	3.93816238	-0.91659662
-5.030543299	12.08883906	-0.845128712
-5.328545646	16.00447103	-1.385337226
-5.187211091	13.88363559	-1.356903773
-5.680188482	13.66343792	-1.500685977
-3.248338489	11.11801781	-1.267708194
-2.904677621	8.74109422	-1.095582254
-2.837275172	7.600880625	-1.043495062
-2.826865895	6.80593037	-1.020658139
-1.888803987	6.476944842	-0.990135204
-1.95135302	5.88355995	-0.969030171
-2.01880214	5.416898951	-0.959814418
-2.069590406	4.984195829	-0.951309433
-1.408951875	4.844052122	-0.931082455
-1.449642593	4.380052286	-0.896480196
-1.564616701	4.206740947	-0.916986549
-1.636081382	3.939593253	-0.915757088
-5.002565235	12.12635629	-0.846674559
-5.276300064	16.01127719	-1.384518735
-5.15219685	13.92003115	-1.358909588
-5.635968119	13.67528102	-1.500080632
-3.21117918	11.11742575	-1.266511451
-2.884672111	8.770716864	-1.098180659
-2.811878486	7.603967967	-1.04272962
-2.812761005	6.831057621	-1.02312744
-1.866457416	6.474152999	-0.988828314
-1.928363032	5.874499673	-0.966558963
-1.994657309	5.402707272	-0.956211019
-2.049041268	4.977772293	-0.948879112
-1.391638137	4.839846101	-0.929448931
-1.556784061	4.22531172	-0.919989134
-1.622126142	3.940073636	-0.914707629
-4.984603191	12.18875334	-0.849959489
-5.205830683	15.96201054	-1.378870957
-5.095068816	13.89650294	-1.355080347
-5.587589793	13.67685053	-1.498365329
-3.177602261	11.12913744	-1.266729009
-2.866663554	8.806907842	-1.101605897
-2.78887791	7.613490111	-1.042857291
-2.795907927	6.849743138	-1.024636511
-1.846857337	6.480800061	-0.988973511
-1.908499621	5.874750013	-0.965632229
-1.981460911	5.418066495	-0.957848897
-2.032271595	4.980387536	-0.948184717
-1.384042125	4.869632751	-0.934349386
-1.541126519	4.22270507	-0.918387796
-1.610769361	3.946842391	-0.915127367
-4.957307123	12.22895873	-0.851698574
-5.170304364	16.01963878	-1.382472388
-5.05309086	13.91394114	-1.355262737
-5.536267528	13.67087491	-1.495842861
-3.151003049	11.16562122	-1.269775401
-2.835368369	8.802428802	-1.099952345
-2.765506842	7.622010779	-1.042857292
-2.776737704	6.862879568	-1.02532244
-1.830184707	6.497864019	-0.990715992
-1.889862352	5.878696215	-0.965323357
-1.977932387	5.460292986	-0.964236784
-2.01661324	4.985686276	-0.94801109
-1.358191858	4.835039138	-0.926907983
-1.526831778	4.223727496	-0.917587067
-1.590219792	3.930918795	-0.910299866
-4.883874645	17.46338666	-4.048987258
-4.91158087	12.22373906	-0.850281534
-5.12082956	16.03447698	-1.382390611
-5.007009246	13.92000809	-1.354351025
-5.487999457	13.67209989	-1.494127558
-3.124210141	11.20204626	-1.272821676
-2.807445086	8.80824792	-1.099597937
-2.741103654	7.627658869	-1.042474512
-2.760094053	6.882398805	-1.026968603
-1.811567437	6.508214025	-0.991441977
-1.87271646	5.887291475	-0.965786666
-1.961504455	5.467263927	-0.964400578
-2.00387317	4.998248059	-0.949226307
-1.345193086	4.845816485	-0.928178458
-1.513866449	4.228391875	-0.917587067
-1.589068842	3.963003962	-0.916596621
-5.021004606	12.60773902	-0.875916895
-5.076717218	16.06626714	-1.383782022
-4.967287209	13.94374604	-1.355171542
-5.440511535	13.67500559	-1.492613959
-3.097751398	11.24032851	-1.276085626
-2.783992344	8.828184659	-1.101015336
-2.718686973	7.638835771	-1.042857291
-2.741161388	6.896357035	-1.027791742
-1.79211679	6.515649041	-0.991732371
-1.855832059	5.896778798	-0.966404526
-1.938776671	5.456524058	-0.961452295
-1.98671096	4.999796667	-0.948358288
-1.330580112	4.850868834	-0.928359953
-1.499577058	4.229322966	-0.916786398
-1.579791783	3.975129056	-0.918275742
-5.005382605	12.68156249	-0.87997472
-5.022942192	16.06749719	-1.382554284
-4.923822471	13.95704163	-1.35498927
-5.385029006	13.65738761	-1.488880681
-3.06142369	11.24306485	-1.275323998
-2.750684037	8.816777369	-1.098535067
-2.694249446	7.644334385	-1.042474512
-2.717449425	6.898283102	-1.026831393
-1.774453819	6.529709625	-0.993039261
-1.840081876	5.909991072	-0.96764013
-1.921699752	5.461515885	-0.961288502
-1.974249207	5.013198834	-0.949747075
-1.315948907	4.855877223	-0.928541449
-1.493735532	4.254241226	-0.921190169
-1.571888528	3.990873672	-0.920794456
-4.982084048	12.7368221	-0.882744369
-4.972151638	16.07807077	-1.382145039
-4.874083025	13.95233985	-1.353074651
-5.336585584	13.65716406	-1.487064527
-3.035179313	11.28312269	-1.278805506
-2.734163672	8.859333171	-1.102786906
-2.676667158	7.669420406	-1.044770721
-2.694111579	6.901051609	-1.026008254
-1.752873403	6.52938967	-0.992167963
-1.82397734	5.922218102	-0.968721298
-1.907856134	5.475770156	-0.962762644
-1.956711549	5.013727692	-0.948705485
-1.296467445	4.842792887	-0.925274518
-1.478424478	4.252325826	-0.919788982
-1.558570812	3.992944838	-0.920164792
-5.00105237	12.90185188	-0.893114445
-4.919594817	16.08276725	-1.381244652
-4.828650361	13.95969861	-1.35234521
-5.282805438	13.64285604	-1.483734774
-2.99952778	11.2885387	-1.278370391
-2.705231175	8.86198095	-1.102078324
-2.645350275	7.655097635	-1.041709187
-2.670782579	6.903741314	-1.025185231
-1.733340408	6.536648963	-0.992458472
-1.808102934	5.93534721	-0.969956903
-1.892656367	5.486260161	-0.96358161
-1.942386016	5.022462307	-0.949226307
-1.273056487	4.814423447	-0.919103591
-1.462182498	4.247577413	-0.917787278
-1.54984042	4.006826637	-0.92226371
-5.080956223	13.22827805	-0.914627549
-4.860994973	16.06725862	-1.378625386
-4.785154589	13.97256235	-1.352162937
-5.237717581	13.65063929	-1.482826756
-2.966142537	11.30249527	-1.278914343
-2.674012177	8.856930104	-1.100424772
-2.62538424	7.673500092	-1.0431124
-2.649235076	6.910978009	-1.025048022
-1.715534161	6.550550516	-0.993765247
-1.792165158	5.948434737	-0.971192509
-1.871351872	5.478971177	-0.961288501
-1.922739248	5.017362785	-0.947143126
-1.268467597	4.857317234	-0.926544992
-1.447879911	4.248333959	-0.916986551
-1.535790807	4.006997795	-0.921214251
-4.803964809	16.05631563	-1.376415365
-4.741305464	13.98434881	-1.351889354
-5.200056016	13.67780347	-1.484037446
-2.933946883	11.32116531	-1.280002366
-2.647679258	8.86794715	-1.100779064
-2.605011682	7.690912528	-1.044388058
-2.628371619	6.919998905	-1.025185231
-1.68973159	6.533751306	-0.990425598
-1.776164121	5.961479731	-0.972428112
-1.859905604	5.500573644	-0.964072991
-1.910133834	5.030603719	-0.948531915
-1.42920159	4.236045554	-0.913383507
-1.521754686	4.00712065	-0.920164793
-4.748461878	16.04995353	-1.374614708
-4.69996447	14.00354952	-1.35234521
-5.140182924	13.64621023	-1.478891657
-2.900924986	11.33685456	-1.280763876
-2.619616774	8.873171015	-1.100424773
-2.582665228	7.702629994	-1.044898275
-2.613408802	6.944717634	-1.027654533
-1.657683875	6.491930942	-0.98331071
-1.757586898	5.965953007	-0.972273676
-1.835819542	5.484737608	-0.960305798
-1.899545811	5.049344365	-0.950962234
-1.509109511	4.010855407	-0.919954925
-4.688566242	16.02809557	-1.371504299
-4.657294026	14.01884722	-1.352436404
-5.095857602	13.65539073	-1.478185342
-2.868078193	11.35341111	-1.281634223
-2.595999047	8.893557739	-1.101960188
-2.558709415	7.709576125	-1.044770722
-2.587937943	6.941565108	-1.026008254
-1.649851251	6.544955795	-0.990570795
-1.738722773	5.969420063	-0.971964746
-1.81681224	5.483789271	-0.959159245
-1.884733623	5.056994125	-0.951309432
-1.494748324	4.009969474	-0.918695539
-4.631064255	16.01368334	-1.369048826
-4.6167512	14.04063792	-1.353165845
-5.05497458	13.67376026	-1.478488015
-2.829384767	11.34672417	-1.279893528
-2.57200549	8.912929191	-1.103377468
-2.535973317	7.720216689	-1.045153501
-2.569718116	6.957834995	-1.027243022
-1.621402435	6.516382291	-0.985488666
-1.719307217	5.970928659	-0.971346944
-1.798135463	5.483712962	-0.958176484
-1.864434716	5.049818413	-0.948879111
-1.484132341	4.019122257	-0.919744997
-6.371251505	17.37944493	-1.194748279
-4.580269368	16.02206528	-1.368557683
-4.577351314	14.06609968	-1.35425983
-5.008894996	13.67799383	-1.477277207
-2.796698162	11.36403875	-1.280872714
-2.553093022	8.950380795	-1.107038863
-2.519635379	7.750598211	-1.048215035
-2.549380664	6.968476654	-1.027654533
-1.616503634	6.582820424	-0.994781625
-1.705037598	5.990429184	-0.973663717
-1.777953746	5.478882002	-0.956374813
-1.857389864	5.07863758	-0.953218987
-1.46810021	4.013556369	-0.917436212
-4.529466766	16.03028836	-1.368066542
-4.526544484	14.05637888	-1.351980548
-4.966907637	13.69329611	-1.477277206
-2.755955965	11.34841574	-1.278152716
-2.524813232	8.955303916	-1.106684572
-2.49341495	7.750738621	-1.047194485
-2.528327009	6.977196541	-1.027791743
-1.577427028	6.509861338	-0.983020316
-1.686651113	5.995632133	-0.973663717
-1.760231511	5.48149341	-0.955883433
-1.83743953	5.072274625	-0.950962235
-1.454114657	4.013445366	-0.916386753
-6.258752038	17.4022485	-1.193653342
-4.475172185	16.02586898	-1.366511337
-4.483700795	14.07114882	-1.352071743
-4.91814633	13.68974366	-1.475259231
-2.727611869	11.38388528	-1.281199109
-2.499725535	8.971617165	-1.107747561
-2.468120246	7.753625995	-1.046556713
-2.506574783	6.983987985	-1.027654533
-1.57884245	6.604162825	-0.996524107
-1.668248907	6.000778253	-0.973663717
-1.743705009	5.487807833	-0.956047226
-1.830516504	5.101989046	-0.955475738
-1.444766814	4.026169735	-0.918275743
-4.423863467	16.03183837	-1.365856521
-4.431527256	14.05634571	-1.349336605
-4.868786592	13.68414691	-1.473039435
-2.694045777	11.39800438	-1.281851899
-2.469553456	8.969669856	-1.106566435
-2.450577673	7.781027946	-1.049235585
-2.480160279	6.97764531	-1.025596743
-1.536999411	6.517491665	-0.982729805
-1.649830866	6.005868019	-0.973663716
-1.730410576	5.504424694	-0.958012689
-1.797049499	5.057470289	-0.946101536
-1.427496793	4.016764433	-0.915127368
-4.37439571	16.04437421	-1.365774743
-4.394015929	14.08793828	-1.351068836
-4.82215292	13.68588237	-1.471626805
-2.663578255	11.42557737	-1.284027825
-2.440719996	8.972413114	-1.105975873
-2.418137942	7.761048876	-1.045536163
-2.455123825	6.974943652	-1.024087673
-1.538738656	6.615653484	-0.996814501
-1.632173749	6.013761979	-0.974127083
-1.714101041	5.511591497	-0.958340276
-1.780544291	5.060172597	-0.945580769
-1.413219265	4.015591121	-0.913868039
-4.322559399	16.04809564	-1.364956252
-4.339617357	14.06519279	-1.347604375
-4.775226463	13.68652148	-1.470113324
-2.632521446	11.45113375	-1.285986195
-2.413181518	8.979859339	-1.105975873
-2.386136358	7.741891782	-1.041964295
-2.432735238	6.979636673	-1.023676161
-1.495652782	6.521013757	-0.981858623
-1.600923083	5.971026239	-0.966404525
-1.702694882	5.534739394	-0.961452295
-1.765335591	5.066541663	-0.945754339
-1.399284209	4.015291721	-0.912818581
-4.277660477	16.07765348	-1.366347662
-4.294120316	14.07082045	-1.346874934
-4.726716897	13.68230008	-1.468095349
-2.60353037	11.48630168	-1.289032471
-2.388677517	8.998737659	-1.10739327
-2.371050032	7.777637626	-1.045791272
-2.412279971	6.98987663	-1.024087673
-1.500735522	6.636550906	-0.998556865
-1.577790934	5.957763243	-0.963469892
-1.686280907	5.541824457	-0.961779881
-1.755564599	5.088691061	-0.948879111
-1.382813064	4.0075502	-0.910089997
-3.178138553	12.09429324	-1.02699124
-4.250931577	14.08392817	-1.346874933
-4.682785903	13.69108908	-1.467489885
-2.569579306	11.50005622	-1.289685261
-2.364835962	9.020431628	-1.10916484
-2.349181581	7.791522303	-1.046684267
-2.39338632	7.004743231	-1.025185231
-1.554755344	5.944414811	-0.960535317
-1.667280975	5.540359255	-0.960633385
-1.744719272	5.108032249	-0.951483058
-1.368298962	4.005297422	-0.908620744
-3.116986167	12.01137649	-1.019133441
-4.205993733	14.09117882	-1.346328001
-4.639483832	13.70162177	-1.467086243
-2.527871838	11.47876174	-1.286421311
-2.333417348	9.013224897	-1.10739327
-2.327817077	7.80724748	-1.047832373
-2.373471739	7.01674441	-1.025871161
-1.454041715	6.618576291	-0.994491232
-1.647461762	5.535993355	-0.958995451
-1.7255698	5.103098972	-0.949573447
-1.353811881	4.002993024	-0.90715149
-3.074926216	12.00060847	-1.017414562
-4.161896953	14.10115069	-1.346054416
-4.59078632	13.69598148	-1.464967416
-2.49496232	11.49714911	-1.287618171
-2.304524648	9.01553052	-1.106802707
-2.305536729	7.820060525	-1.048597698
-2.351304315	7.022114584	-1.025596742
-1.430798735	6.609468006	-0.992458473
-1.63186224	5.54575366	-0.959814419
-1.722096797	5.144790718	-0.956343759
-4.111920691	14.09090983	-1.343866329
-4.545299801	13.69961414	-1.463857459
-2.451572454	11.46683752	-1.283375036
-2.271509089	9.001376127	-1.104204302
-2.285697705	7.841379781	-1.050511244
-2.329438214	7.028354883	-1.025459533
-1.411133523	6.616729475	-0.992894064
-1.614013631	5.547892106	-0.959323037
-1.708163138	5.155658648	-0.957385349
-4.067566735	14.09963127	-1.343501668
-4.494557548	13.68702804	-1.461032318
-2.418634673	11.48500447	-1.284571778
-2.249402951	9.030464594	-1.106920725
-2.259982057	7.842636981	-1.049745802
-2.306320859	7.030762738	-1.024773603
-1.390216788	6.618122921	-0.992458473
-1.59316813	5.53954481	-0.957029986
-1.693565208	5.164618162	-0.958079685
-4.024563569	14.11300132	-1.343592862
-4.454390075	13.70642951	-1.461637663
-2.386819421	11.50891773	-1.286421311
-2.221213189	9.03539499	-1.106684572
-2.23265008	7.838087172	-1.048215035
-2.283516507	7.034036905	-1.024224883
-1.369906158	6.622356823	-0.992458473
-1.579132849	5.55484473	-0.958831658
-1.676192401	5.165106078	-0.957211722
-3.982867799	14.13103332	-1.344139796
-4.397088848	13.67267547	-1.456592726
-2.354084635	11.52884791	-1.287835728
-2.196057635	9.052781735	-1.107983715
-2.21692494	7.874495686	-1.052169565
-2.258593042	7.030635252	-1.022715812
-1.349187757	6.624589377	-0.992167962
-1.556746503	5.54066887	-0.955555846
-1.658531535	5.164598251	-0.956170131
-3.939228348	14.14222693	-1.344048719
-4.351802439	13.6756726	-1.455482769
-2.321445973	11.54965971	-1.289358865
-2.167349261	9.055613911	-1.107511288
-2.186906989	7.86023826	-1.049363139
-2.237012639	7.03753175	-1.022715813
-1.330802205	6.638398522	-0.993620049
-1.537365319	5.536863652	-0.954081703
-1.641486093	5.16590802	-0.955475737
-3.897671859	14.16096641	-1.344686847
-4.3014596	13.66238803	-1.452657627
-2.284265001	11.54795092	-1.28837968
-2.13841591	9.057388871	-1.106920727
-2.161993237	7.864041914	-1.048980477
-2.215411198	7.044361395	-1.022715812
-1.311770098	6.649245016	-0.994636429
-1.523764373	5.553921879	-0.95621102
-1.625629592	5.170919848	-0.955475738
-3.854208158	14.17285795	-1.344686847
-4.263074346	13.68691895	-1.453868436
-2.248825708	11.55490477	-1.288379681
-2.11354577	9.076479154	-1.108456142
-2.139416359	7.876380396	-1.049745801
-2.194377612	7.053016753	-1.022990231
-1.291741314	6.655180505	-0.994926822
-1.506976137	5.559522575	-0.956374813
-1.610342731	5.17776358	-0.955822935
-3.805799308	14.16634303	-1.342954617
-4.216376332	13.68472067	-1.452253985
-2.20887938	11.53831759	-1.285768521
-2.087245198	9.089695215	-1.109282976
-2.112928355	7.874285415	-1.048597696
-2.173020196	7.06066255	-1.02312744
-1.273358361	6.669802477	-0.996524106
-1.488636761	5.559355362	-0.955555846
-1.595318666	5.185503661	-0.95634376
-3.766406381	14.19335208	-1.34441338
-4.163061189	13.66047669	-1.448318886
-2.183952971	11.60072368	-1.291970026
-2.063953305	9.116394735	-1.111763246
-2.087235837	7.874978423	-1.047832372
-2.151348236	7.06729593	-1.02312744
-1.254350178	6.681457033	-0.997685682
-1.470817252	5.561034855	-0.955064465
-1.578542151	5.18754687	-0.955822934
-3.700879565	14.12103349	-1.336481433
-4.11510229	13.65317989	-1.446199941
-2.146362028	11.59661714	-1.290773283
-2.03597489	9.122684132	-1.111763246
-2.064321736	7.886143174	-1.048470144
-2.130798207	7.077657129	-1.023676161
-1.233845938	6.685274236	-0.997685683
-1.453749245	5.565521403	-0.955064466
-1.561200632	5.187650204	-0.954954971
-3.655293957	14.12364454	-1.335660915
-4.071774835	13.66097347	-1.445695447
-2.113086954	11.61586174	-1.292187583
-2.005204181	9.116279585	-1.11022783
-2.038380305	7.88571737	-1.047577265
-2.116988197	7.110743341	-1.027517324
-1.213683129	6.690974888	-0.997976077
-1.54331139	5.185807944	-0.95373981
-3.577182683	13.9987507	-1.322805743
-4.029563106	13.67244672	-1.445594596
-2.079189143	11.63207503	-1.293275605
-1.978278038	9.127240908	-1.110818392
-2.015403963	7.89673892	-1.048215035
-2.092085686	7.106752037	-1.026008254
-1.193670536	6.697589105	-0.998411668
-1.520722005	5.167844197	-0.949573447
-3.037785931	12.04179931	-1.136998396
-3.985927935	13.67901371	-1.44498925
-2.043492711	11.63839915	-1.293275605
-1.961671781	9.186677914	-1.117314345
-1.995529318	7.920196786	-1.050511244
-2.065290048	7.09601769	-1.023538952
-1.173458272	6.703169006	-0.998702062
-1.505135245	5.173430865	-0.949747074
-2.99673728	12.03463452	-1.135448555
-3.942840809	13.68735397	-1.444585608
-2.00980377	11.65636902	-1.294581185
-1.934500176	9.197511326	-1.117904907
-1.969784908	7.92050652	-1.049745802
-2.040223337	7.090897536	-1.02189279
-1.150876251	6.695036447	-0.996959698
-1.494972659	5.197899711	-0.953392613
-3.895108248	13.67929239	-1.442466664
-1.973037679	11.65660002	-1.293928396
-1.904662269	9.195624094	-1.116960054
-1.935309948	7.885092973	-1.044260504
-2.017917417	7.095217718	-1.021618371
-1.129836913	6.695608974	-0.996524107
-1.479826675	5.205303892	-0.953913381
-2.923307037	12.0547319	-1.135630828
-3.844767292	13.66148942	-1.439338849
-1.940198575	11.68024987	-1.295886766
-1.880608326	9.221857322	-1.119440324
-1.927452012	7.95847023	-1.053190115
-1.996676185	7.103282417	-1.02189279
-1.105248947	6.674640806	-0.992894064
-1.46837882	5.225936874	-0.956864524
-2.883065724	12.05008414	-1.134354453
-3.799104014	13.65980108	-1.437926219
-1.900997382	11.66554338	-1.293602001
-1.850352917	9.21784805	-1.118259317
-1.9046402	7.971098841	-1.054083111
-1.976199703	7.114146541	-1.022578719
-1.08793894	6.697532543	-0.995798122
-1.45497381	5.239906441	-0.95860051
-2.851115508	12.08019536	-1.136360268
-3.755596655	13.66563668	-1.437320756
-1.861434137	11.64776172	-1.29099084
-1.821486929	9.220558788	-1.117904909
-1.881541537	7.982696937	-1.054848553
-1.953840088	7.118265721	-1.022304301
-1.068008693	6.704746777	-0.996378909
-1.438891136	5.244345849	-0.958600511
-2.762112763	11.86580778	-1.115390759
-3.711828597	13.6703731	-1.436614441
-1.833537412	11.70350401	-1.296539555
-1.796221333	9.241699705	-1.119794732
-1.852101382	7.967178667	-1.052042011
-1.927325801	7.107018266	-1.019834999
-1.047281159	6.707014251	-0.996233712
-1.421248972	5.243032129	-0.957558918
-2.730597586	11.89557937	-1.117396575
-3.669097556	13.67881398	-1.436311769
-1.786611169	11.63734808	-1.288597356
-1.766927447	9.242290316	-1.11920417
-1.824990297	7.961222346	-1.050511244
-1.909101219	7.126293076	-1.02175558
-1.026699395	6.710195772	-0.996233712
-1.393948241	5.205510643	-0.949920643
-2.705739848	11.95537781	-1.122228722
-3.62533071	13.68327463	-1.435605454
-1.752526006	11.65358814	-1.289794099
-1.739848493	9.25449901	-1.120030887
-1.800557083	7.966783962	-1.050511244
-1.889762987	7.14169255	-1.023127441
-1.006254576	6.71429277	-0.99637891
-1.377719553	5.208810622	-0.949747074
-2.669265474	11.96459474	-1.122319799
-3.583082232	13.69337	-1.435504603
-1.714882534	11.64612506	-1.288379681
-1.712891631	9.267604583	-1.120975739
-1.778479278	7.982919376	-1.051914457
-1.869095929	7.152248235	-1.023813371
-0.98507611	6.71343252	-0.995798122
-1.114497434	6.049484612	-0.961616485
-1.367208498	5.233975882	-0.953566184
-2.621639378	11.92312429	-1.11767004
-3.535578891	13.68310673	-1.433284806
-1.679570045	11.65428265	-1.288706076
-1.688710454	9.296264056	-1.123810416
-1.755255936	7.994150458	-1.052679898
-1.847639344	7.159867002	-1.024087672
-0.963912449	6.712505465	-0.995217216
-1.097692859	6.062597481	-0.963161021
-0.712614814	4.987259485	-0.929811922
-2.591373557	11.96030951	-1.120405297
-3.493337083	13.69292539	-1.433183837
-1.645194983	11.66922415	-1.289794098
-1.656168904	9.278917751	-1.121093875
-1.731980325	8.005314241	-1.053445223
-1.826153547	7.167421796	-1.024362092
-0.942213202	6.707592957	-0.99405564
-1.080991409	6.076636787	-0.964859992
-0.695813509	4.978709411	-0.927815466
-2.548638978	11.93995997	-1.117761235
-3.448152582	13.69103619	-1.431872177
-1.608843625	11.67027774	-1.289358866
-1.62769383	9.283955562	-1.121093876
-1.703277054	7.991189858	-1.050893907
-1.803672456	7.171069311	-1.024087673
-0.921630128	6.710451893	-0.99405564
-1.06353382	6.08673736	-0.96594116
-0.681068219	4.984718073	-0.92854145
-2.509127161	11.93408	-1.116484862
-3.404692904	13.69575732	-1.431266831
-1.575023153	11.68993604	-1.290990841
-1.597518595	9.279119457	-1.119912751
-1.67508429	7.978905529	-1.048597697
-1.780470016	7.171762269	-1.023401742
-0.901564908	6.717170303	-0.994636428
-1.045690352	6.094840407	-0.966713398
-0.669936467	5.017975541	-0.934349385
-2.475126915	11.95439885	-1.117670041
-3.357206439	13.68391449	-1.428946065
-1.545377577	11.7420197	-1.29621316
-1.57020152	9.290830031	-1.120739584
-1.654211979	8.00149081	-1.050893907
