x 	 y 	 z 
-5.294927986	17.28779752	-1.311568747
-5.239840326	17.29727872	-1.311062345
-5.180737622	17.29320765	-1.309543022
-5.120859514	17.28607091	-1.30780662
-5.066400581	17.29691419	-1.30744482
-5.001659048	17.27213909	-1.304406057
-4.941508422	17.26247154	-1.302524934
-6.350682874	17.4555844	-1.021265561
-4.884995018	17.26507532	-1.301584373
-4.836838091	17.29726915	-1.302886733
-6.21425936	17.41240901	-1.016489441
-4.767012162	17.25146331	-1.298328648
-4.710648191	17.25349896	-1.297388087
-4.65509569	17.25823867	-1.296664604
-6.030850224	17.40282498	-1.012646611
-4.595192898	17.24641823	-1.294711122
-5.914962562	17.41302859	-1.011109525
-5.849418868	17.39512977	-1.009023363
-5.745073853	17.43828131	-1.009462531
-5.64945165	17.32671852	-1.001996452
-5.575724343	17.28030256	-0.99831825
-5.583421707	17.48756531	-1.009297902
-5.482221812	17.35417885	-1.000623996
-5.395985587	17.45331191	-1.00441199
-6.054225255	17.3328719	-1.18502235
-5.311170126	17.36761701	-0.998537834
-6.048968467	17.490003	-1.194490668
-5.261331078	17.39529818	-0.999196703
-5.936443805	17.3366515	-1.182767984
-5.217667005	17.44388332	-1.001063163
-5.893800558	17.38597049	-1.184893486
-5.124760365	17.32671741	-0.993432338
-5.055043666	17.28581627	-0.990193422
-5.763418065	17.35077761	-1.180062767
-5.015021446	17.3463264	-0.992773588
-5.70080909	17.33993901	-1.178130386
-4.899263543	17.34409977	-0.990907068
-4.843076276	17.34847116	-0.990303213
-5.520375747	17.32701589	-1.173750517
-2.867463076	11.95041852	-1.00931131
-4.795936413	17.38538518	-0.991565878
-5.481891696	17.39050631	-1.176906583
-4.738374702	17.38460372	-0.990687484
-5.439505158	17.44249294	-1.179289815
-2.773689705	11.88043928	-1.001944653
-4.688132808	17.4106295	-0.991346235
-5.392144666	17.47912294	-1.180642482
-2.740134914	11.9015187	-1.003008715
-4.619553075	17.36799782	-0.988107259
-5.306456906	17.39059216	-1.173557279
-2.711992541	11.94680185	-1.006119123
-4.54037028	17.28358512	-0.9825077
-5.264034416	17.443094	-1.176004884
-2.675327494	11.95506663	-1.006119124
-4.511644369	17.39118466	-0.98783278
-5.189662337	17.38935596	-1.171302912
-2.635846789	11.95056595	-1.005054944
-5.133746167	17.39658195	-1.170723197
-2.593878493	11.93424871	-1.003008716
-2.553913683	11.92655693	-1.001699082
-4.993994296	17.31365258	-1.163058397
-2.521836775	11.95579088	-1.003499858
-4.936201527	17.31257803	-1.161963459
-2.485347742	11.96444687	-1.003581636
-2.446432849	11.96127486	-1.002681366
-4.824793756	17.32427462	-1.160739657
-2.405003637	11.9452754	-1.000716916
-4.777975587	17.36208735	-1.162285444
-2.367182451	11.94673147	-1.000225774
-4.733327399	17.40844254	-1.164411065
-2.321936951	11.90991797	-0.996542446
-4.671354175	17.39107648	-1.162285444
-2.279192487	11.88468441	-0.993841283
-4.604925283	17.35613557	-1.159000513
-2.245306016	11.90533255	-0.994987242
-2.211314187	11.92588385	-0.9961332
-2.231719481	12.24538958	-1.022243849
-2.120176798	11.83916199	-0.987784377
-2.077455791	11.80929286	-0.984755806
-2.05546743	11.89810703	-0.991631381
-2.002123214	11.80511316	-0.983364336
-1.970314272	11.83774437	-0.985574357
-1.949567228	11.93914453	-0.993513934
-1.893071812	11.82107223	-0.983200661
-1.884465967	12.00306445	-0.997852079
-2.31247831	11.90273435	-1.110102872
-2.264548173	11.85010686	-1.104541402
-1.781816919	11.82222657	-0.981891028
-2.23112464	11.87265794	-1.106000166
-1.756597162	11.90257082	-0.988111727
-2.223816784	12.03710856	-1.120678763
-1.720214852	11.90889036	-0.988193623
-2.237047753	12.32018239	-1.146389108
-1.680602649	11.8924013	-0.986392848
-2.117034695	11.86621995	-1.103538494
-1.638515856	11.85702326	-0.983036927
-2.079416249	11.86579301	-1.102900366
-1.571315914	11.63384144	-0.964129261
-2.041989493	11.86622863	-1.102353315
-1.566774588	11.87475899	-0.983691744
-2.004745366	11.86752776	-1.101897459
-1.111299153	11.78203788	-1.295233976
-1.530208586	11.87852106	-0.983609907
-1.965232562	11.85495612	-1.100165228
-1.074153783	11.77450165	-1.294037233
-1.49002953	11.85349406	-0.981154374
-1.927094591	11.85011731	-1.099162321
-1.036628623	11.76189804	-1.29229642
-1.452807636	11.85108484	-0.980581395
-1.897002997	11.8953106	-1.102809172
-1.002813139	11.79176675	-1.295233976
-1.391613045	11.64766917	-0.963392548
-1.866190765	11.93747831	-1.106182556
-0.963952302	11.76209326	-1.291643631
-1.375455531	11.82017711	-0.977307312
-1.819304449	11.87621094	-1.099982838
-0.92926897	11.78283334	-1.293602001
-1.320118141	11.65598791	-0.963392548
-1.788771119	11.92112896	-1.103629689
-0.890861948	11.75589206	-1.290338051
-1.298428446	11.7877777	-0.973951392
-1.747991365	11.89798846	-1.100985746
-0.85709752	11.79029633	-1.293819559
-1.270956541	11.87296664	-0.980663232
-1.712897978	11.91315272	-1.101897459
-0.818298208	11.75518676	-1.289685261
-1.226281573	11.79750577	-0.974115126
-1.671347582	11.882851	-1.09861527
-0.784605564	11.7933494	-1.293602001
-1.637732787	11.90864007	-1.10052989
-0.744265962	11.73022464	-1.286421311
-1.594292237	11.86228602	-1.095788936
-0.709712272	11.75626697	-1.289032471
-1.115206621	11.7824944	-0.971987001
-1.556206756	11.85428634	-1.094603758
-0.676995801	11.81694243	-1.295451533
-1.082597024	11.82456805	-0.975179188
-1.525021173	11.89950307	-1.098341803
-0.642191639	11.84576466	-1.298389089
-1.482205353	11.85373018	-1.093692045
-0.605744788	11.84569291	-1.29817153
-1.448242188	11.87799176	-1.09551547
-0.568588654	11.8306165	-1.296321881
-0.976090845	11.8628362	-0.977552883
-1.410736772	11.87347952	-1.094694952
-0.532111426	11.82833312	-1.295886766
-1.372128001	11.85895605	-1.092962604
-0.495570363	11.8239502	-1.295233975
-1.334067514	11.84826584	-1.091595035
-0.458945437	11.81647497	-1.29425479
-1.297711283	11.85230366	-1.091595035
-0.420878698	11.76716249	-1.288706075
-1.25902514	11.83444366	-1.089589338
-1.961232744	13.67822979	-1.401400375
-0.385685133	11.7962177	-1.291752468
-1.22199544	11.83131646	-1.088951092
-1.918015638	13.67531497	-1.400492239
-0.348727703	11.77151091	-1.288923751
-1.184897576	11.8270825	-1.088221769
-1.874699664	13.67127811	-1.399483251
-0.311318572	11.72383343	-1.283592593
-1.147933369	11.82372445	-1.087583523
-1.829180296	13.65034067	-1.396758961
-0.275628953	11.73665939	-1.284898174
-0.676986358	11.74988834	-0.966584793
-1.114542117	11.8579254	-1.090409855
-1.788067687	13.66180762	-1.397364424
-0.239559237	11.7344683	-1.284571779
-0.639795254	11.73101233	-0.964865915
-1.074371089	11.8196361	-1.086580616
-1.744758472	13.65637304	-1.396254467
-0.20338487	11.72520807	-1.283483873
-0.607336297	11.80159715	-0.970513634
-1.703222315	13.66462412	-1.39655714
-0.167283751	11.71683139	-1.282504688
-0.573053392	11.8432241	-0.973787717
-1.003592259	11.84684342	-1.088495235
-1.661411793	13.6707728	-1.39665811
-0.131403085	11.72325333	-1.283157478
-0.531167208	11.72246461	-0.963719956
-0.970077471	11.88460527	-1.09168623
-1.61946268	13.67580516	-1.396658109
-0.09529038	11.70570893	-1.281199108
-0.498270958	11.7967291	-0.969695142
-0.933767399	11.88951158	-1.09186862
-1.576928415	13.67576727	-1.396153615
-0.058984026	11.6284106	-1.272712839
-0.462934851	11.82011171	-0.971495859
-0.89871003	11.91118775	-1.093600851
-1.535740899	13.68746193	-1.39685993
-0.02324652	11.5977207	-1.269340169
-0.424368406	11.75773275	-0.966257385
-0.861228406	11.90097636	-1.092415671
-1.490827892	13.66540554	-1.394135641
0.012316921	11.58083854	-1.267490636
-0.389511209	11.79583527	-0.969285897
-0.818999851	11.82110619	-1.084848385
-1.447532708	13.65705294	-1.392823862
0.047649238	11.53303108	-1.262268316
-0.305485837	9.415642405	-1.120503313
-0.355199948	11.85973513	-0.974442533
-0.779177155	11.76990486	-1.07992516
-1.403997465	13.64559563	-1.39120953
0.082781374	11.49803955	-1.258460413
-0.276510146	9.41355786	-1.120149023
-0.750529053	11.89050937	-1.090774517
-1.361731586	13.64587848	-1.390805887
0.118148325	11.50667715	-1.259439598
-0.247106266	9.394507897	-1.117786889
-0.28410762	11.93243292	-0.980253986
-0.707659907	11.78639337	-1.081019145
-1.320721956	13.65890478	-1.391714023
0.153091851	11.47942368	-1.256502044
-0.218121698	9.388272903	-1.116960055
-0.247332774	11.92527683	-0.97959917
-0.669854081	11.75967613	-1.078375201
-1.278347275	13.65793921	-1.391209529
0.188782362	11.50772409	-1.259657156
-0.190078573	9.426624539	-1.121448166
-0.20921338	11.8392857	-0.972478084
-0.640792039	11.89194161	-1.090318661
-1.235632146	13.65287901	-1.390301393
0.224918917	11.54982748	-1.264335524
-0.160936545	9.414256408	-1.119912751
-0.172467988	11.81097229	-0.970104389
-0.599504564	11.79936928	-1.081657391
-1.193566713	13.65462372	-1.390099572
0.259545684	11.51330564	-1.260418784
-0.132777451	9.466336129	-1.12605453
-0.136415535	11.82739048	-0.971414021
-0.566815308	11.87476043	-1.088404041
-1.151752817	13.65921273	-1.390200424
0.293568717	11.46177437	-1.254870068
-0.103223137	9.42003144	-1.120503314
-0.100289263	11.84668921	-0.972969226
-0.531580943	11.90330469	-1.090865712
-1.109036026	13.65276532	-1.389191436
0.328019033	11.43597845	-1.252150189
-0.074283228	9.415338871	-1.119912751
-0.063938286	11.84594407	-0.972887329
-0.493983851	11.87901012	-1.088495236
-1.067377214	13.65907946	-1.389494227
0.362660898	11.42100814	-1.250626933
-0.04539703	9.415521933	-1.11991275
-0.027604425	11.85007171	-0.973214738
-1.024275362	13.64641594	-1.387879776
0.395899267	11.36818217	-1.244969499
-0.016456422	9.384834052	-1.116251356
0.008759307	11.8610634	-0.974115125
-0.982261044	13.64750961	-1.387677955
0.430096903	11.34903375	-1.243011129
0.012332005	9.381861349	-1.115897066
0.045175052	11.8679576	-0.974688105
-0.385372419	11.90594544	-1.090592245
-0.940318054	13.64946681	-1.387577104
0.464546988	11.33872158	-1.242031943
0.04103676	9.363905917	-1.113771088
0.081605771	11.8707524	-0.974933616
-0.347093926	11.84734711	-1.085121851
-0.898372358	13.65129476	-1.387476134
0.499856391	11.3491599	-1.243337523
0.069661054	9.349834295	-1.112117536
0.118024345	11.87044632	-0.974933617
-0.311241206	11.86727095	-1.0868542
-0.856611112	13.65597178	-1.387677955
0.530321637	11.2552276	-1.233219396
0.098209836	9.336668158	-1.11058212
0.154675197	11.88796676	-0.976406984
-0.277021629	11.96274914	-1.09551547
-0.814770382	13.65952867	-1.387778924
0.568138646	11.31907353	-1.240400086
0.126691972	9.324407507	-1.10916484
0.192219817	11.9542023	-0.981891028
-0.239959138	11.94562078	-1.093874316
-0.772691138	13.65898427	-1.387476134
0.602069205	11.30238783	-1.238768112
0.155066741	9.310074969	-1.107511288
0.22692856	11.85092077	-0.973460309
-0.200631996	11.78898176	-1.079469304
-0.731420034	13.67321273	-1.388686943
0.634616533	11.26277244	-1.234633814
0.18331559	9.293670545	-1.105621582
0.262798592	11.82824807	-0.971659592
-0.164449083	11.78854647	-1.079378109
-0.690119023	13.68830948	-1.389998721
0.668518575	11.24985752	-1.233436954
0.211555764	9.281151839	-1.104204303
0.298859152	11.81841895	-0.970922938
-0.128400746	11.79994863	-1.080381016
-0.648073562	13.68936859	-1.389897751
0.701603282	11.22493437	-1.230934631
0.239643829	9.265569424	-1.102432616
1.120722974	17.26820102	-1.255280147
-0.092307335	11.81422848	-1.081657391
-0.604576198	13.65749874	-1.386467146
0.733305249	11.18106789	-1.226365101
0.267580847	9.247916077	-1.100424772
1.173425186	17.26070124	-1.254990707
0.375439942	11.94586251	-0.981563619
-0.05611334	11.8254103	-1.082660298
-0.562754621	13.66127768	-1.386668968
0.766379049	11.16091401	-1.224406848
0.295951783	9.24705166	-1.100424772
1.225314248	17.24209637	-1.253905543
0.412293751	11.95063074	-0.982054702
-0.019861621	11.84245575	-1.084210139
-0.520119678	13.64405048	-1.384751844
0.799122676	11.13768879	-1.222122084
0.323971842	9.236176018	-1.099243647
1.277837723	17.23328332	-1.253543744
0.016472	11.84345705	-1.084301334
-0.478362436	13.64856465	-1.385054634
0.833733995	11.14113257	-1.222774874
0.352382211	9.237123524	-1.099479919
1.33093303	17.23226511	-1.253760824
0.052793814	11.84036276	-1.084027867
-0.436963944	13.66488385	-1.386568116
0.864589969	11.09590603	-1.218096506
0.379697219	9.211195027	-1.096527106
1.383794675	17.22810117	-1.253760824
0.518784608	11.86667534	-0.975506596
0.089089307	11.83616171	-1.083663205
-0.394866156	13.6601931	-1.385962652
0.896540812	11.06744075	-1.215267789
0.408218624	9.215939051	-1.097235805
1.437223511	17.23073071	-1.254267225
0.556399788	11.89091177	-0.97763472
0.125475578	11.84280343	-1.084301334
-0.352492886	13.64343882	-1.384146499
0.926492508	11.01709101	-1.210045587
0.435034265	9.183894582	-1.093574411
1.492486619	17.25406401	-1.256293068
0.162746955	11.91106919	-1.090592245
-0.310724312	13.64843448	-1.384550023
0.958129582	10.9894382	-1.207325588
0.462707743	9.172599651	-1.092393286
0.197639485	11.8119398	-1.081566196
-0.269006791	13.65728059	-1.385357307
0.993538383	11.00525813	-1.209392796
0.490740559	9.169153906	-1.092157132
0.23433052	11.83417736	-1.083663205
-0.227221363	13.66500562	-1.386063623
1.026650386	10.99523011	-1.208631169
0.517914905	9.15075118	-1.09014929
0.714331161	12.08714524	-0.994414322
0.268586912	11.7438017	-1.075457792
-0.160396197	11.8292281	-1.199802089
1.059137623	10.97916578	-1.207216752
0.545690799	9.144162064	-1.089558725
0.774171317	12.45095493	-1.024535648
0.305157411	11.76382764	-1.077372294
-0.123467234	11.76897899	-1.193647194
1.092717786	10.974875	-1.207108031
0.572933614	9.129561575	-1.08802331
1.042895264	15.98108873	-1.315272323
0.34101588	11.75487283	-1.076642971
-0.087359936	11.769302	-1.193647193
1.123032828	10.93883876	-1.203517687
0.599635306	9.107943443	-1.08566106
0.238837337	8.149343094	-1.048597696
1.092123471	15.98079696	-1.315517894
0.454702916	14.17340203	-1.298280579
-0.051325463	11.78642825	-1.195362496
1.155437275	10.92446757	-1.202320944
0.627233902	9.101107708	-1.085070497
0.26345289	8.136677111	-1.047066931
1.139655663	15.95649497	-1.313799016
0.502557263	14.29634223	-1.309677104
-0.015191851	11.80742305	-1.197481441
1.178834532	10.82797784	-1.192093979
0.655152732	9.099140925	-1.085070498
0.287606432	8.113031922	-1.044132949
1.189492747	15.96485011	-1.314781182
0.547442455	14.32160088	-1.312138657
0.021032882	11.80741362	-1.19748144
1.210942567	10.81443152	-1.191005956
0.682396282	9.08817667	-1.084007509
0.311655568	8.090307474	-1.041326407
1.236539128	15.9362842	-1.312734954
0.59137796	14.31985479	-1.312138658
0.057267067	11.80928339	-1.197683262
1.243205849	10.80276532	-1.190135609
0.71360293	9.128609229	-1.0890863
0.334990932	8.053638846	-1.03673399
1.286948033	15.95128926	-1.314290157
0.635749292	14.32792151	-1.313050371
0.093465662	11.80507298	-1.19727962
1.275292265	10.79001524	-1.189156424
0.738147438	9.08381808	-1.084007509
0.358768113	8.031765014	-1.034055117
1.323566803	15.80027818	-1.30217611
0.679514984	14.32192484	-1.312685709
0.129770112	11.81268953	-1.198086787
1.306953149	10.77421003	-1.187850844
0.765929247	9.080520792	-1.083889489
0.383123731	8.024682161	-1.033289792
1.260350772	14.5103296	-1.196178309
0.723099068	14.31281011	-1.312047463
0.16473804	11.72170901	-1.188904929
1.345524766	10.81454043	-1.192746769
0.794130314	9.082085777	-1.084361917
0.407388937	8.016535453	-1.032396796
1.298522482	14.43591759	-1.190366857
0.767060043	14.31151882	-1.312138658
0.201840176	11.78779624	-1.195665286
1.363731674	10.69301844	-1.179799807
0.821184233	9.070706031	-1.083298928
0.431821284	8.012276367	-1.032014133
1.354993182	14.56285719	-1.201171271
0.810456459	14.3001505	-1.31131814
1.397046036	10.69272701	-1.180235039
0.846787321	9.044415076	-1.08046425
0.456795483	8.017845338	-1.032907012
1.407676734	14.64196571	-1.208046787
0.856106843	14.32741789	-1.314053278
1.428658031	10.67952327	-1.179255854
0.870898459	9.004216177	-1.075976139
0.481035017	8.010466718	-1.032141689
1.440485252	14.51558933	-1.197979084
0.895812227	14.25714105	-1.307853679
0.359189756	13.64127304	-1.383944677
1.464247034	10.69577229	-1.181540619
0.897236739	8.988656849	-1.074440723
0.505795966	8.011922427	-1.03252435
1.45883418	14.25530417	-1.176861398
0.949307292	14.40238362	-1.321438174
0.401448234	13.65402974	-1.385357307
1.492780944	10.66071121	-1.178167831
0.924199339	8.979934854	-1.073732024
0.530963566	8.019239863	-1.033672455
1.498172788	14.20913269	-1.17342364
0.997532921	14.45801844	-1.326817255
0.444401892	13.68554758	-1.388686942
1.523649286	10.64328877	-1.176753531
0.94902311	8.951383549	-1.070661194
0.554809585	8.006688891	-1.032269241
1.537672118	14.16681831	-1.170313232
1.04324506	14.47376152	-1.328549485
0.48673988	13.69406324	-1.38969593
1.548956952	10.58840072	-1.171204816
0.975834783	8.942506986	-1.069952495
0.578869921	7.998024586	-1.031376246
1.572613037	14.08576613	-1.164010636
1.087421052	14.46751427	-1.328276019
0.528827161	13.69449314	-1.389897751
1.577321111	10.55607131	-1.168158542
1.00315462	8.938484112	-1.069834476
0.603330185	7.995222006	-1.031248692
1.61218432	14.0491909	-1.161391489
1.127140508	14.40454196	-1.322805743
0.570175726	13.67690192	-1.388283418
1.608499887	10.54332032	-1.167288076
1.030800351	8.937337006	-1.07007063
0.62723498	7.98542276	-1.03022814
1.656212283	14.05209633	-1.162046305
1.167452663	14.35337278	-1.318429451
0.611732788	13.66614326	-1.387375282
1.637168328	10.51476261	-1.164677034
1.058682042	8.938077659	-1.070543058
0.651085405	7.975552431	-1.02920759
1.695605197	14.0162773	-1.159508817
1.210477302	14.33781615	-1.317335467
0.653561947	13.66221432	-1.387173461
1.666924294	10.49398255	-1.162936222
1.084780643	8.923944294	-1.069243914
0.676639506	7.986365832	-1.03086603
1.04232829	6.54052239	-0.971984875
1.74338501	14.04958199	-1.162701003
1.253330755	14.32113844	-1.31615017
0.695322211	13.6571643	-1.386870788
1.699906282	10.49372504	-1.163480174
1.111048212	8.911705364	-1.068180924
0.700357246	7.975359607	-1.029717924
1.063659129	6.54510657	-0.97314651
1.799559835	14.14699024	-1.171213619
1.297351389	14.31821794	-1.316241365
0.73754037	13.66092764	-1.387476134
1.728691256	10.46786466	-1.16119541
1.1369991	8.897420285	-1.066881664
0.722218006	7.944528841	-1.026018503
1.081147003	6.526195024	-0.970823241
1.851325404	14.20564065	-1.17653393
1.340529699	14.30623798	-1.315512042
0.780014846	13.66853378	-1.38848524
1.758653409	10.44976763	-1.159781109
1.157845979	8.844659654	-1.060976272
0.74528851	7.928450904	-1.02423251
1.098858149	6.509188867	-0.968790423
1.903072439	14.26114343	-1.181608788
1.379233261	14.24853359	-1.310588817
0.821766456	13.66309697	-1.388182449
1.779785608	10.380638	-1.152709257
1.182601198	8.823350685	-1.058850294
0.773826679	7.969563349	-1.029845479
1.113624577	6.475559161	-0.96428914
1.951536042	14.28979977	-1.184473625
1.422841586	14.24324359	-1.310497622
0.864182563	13.66845429	-1.388989733
1.80529803	10.33889643	-1.148683796
1.208720717	8.812794828	-1.058023461
0.793823637	7.92274174	-1.024104956
1.136387567	6.488679945	-0.966757607
1.953863216	13.98663987	-1.159836284
1.465818361	14.23187722	-1.309859376
0.90624441	13.66772476	-1.389191437
1.835964829	10.3274373	-1.148031007
1.2358903	8.810028066	-1.058141596
0.818432286	7.92322854	-1.024487618
1.154378847	6.474448342	-0.96516038
1.993946075	13.96084705	-1.158199183
1.50789835	14.21245943	-1.308491807
0.948103218	13.66388764	-1.389090585
1.862153537	10.29143293	-1.14465822
1.263900027	8.813075338	-1.05896843
0.843680937	7.929557033	-1.025635723
1.17459005	6.472823305	-0.965450774
2.034896856	13.94184388	-1.157135122
1.541116469	14.11273125	-1.299739342
0.990810057	13.67182981	-1.390200424
1.895518297	10.29544707	-1.145746241
1.291795991	8.815051112	-1.059677011
0.868328443	7.929889261	-1.026018503
1.198035769	6.488648544	-0.968354832
2.078395105	13.94046409	-1.157544367
1.58351743	14.10001963	-1.299010019
1.0320754	13.65979677	-1.389292406
1.926180478	10.28469781	-1.145202289
1.319422148	8.814975014	-1.060149438
0.892319914	7.924230945	-1.025635723
1.218850195	6.489804308	-0.969080817
2.124753869	13.95766899	-1.159508817
1.630878491	14.13070826	-1.302292208
1.074212151	13.65954204	-1.389595079
1.955864452	10.26897556	-1.144114267
1.345109812	8.802051448	-1.059086449
0.916056909	7.916529344	-1.024997951
1.232629748	6.453964126	-0.964289141
2.171696731	13.97767432	-1.161718837
1.67633296	14.1434387	-1.303933243
1.115870862	13.65320714	-1.389292406
1.986793111	10.25999907	-1.143787873
1.365834051	8.757656108	-1.054244047
0.932265048	7.845724026	-1.016195778
1.250727082	6.441410705	-0.962982309
1.720798754	14.14712683	-1.304753762
1.157248592	13.64377133	-1.388686943
2.017684963	10.2509286	-1.143461476
1.391915652	8.7485214	-1.053653484
0.955370562	7.83495056	-1.015175227
1.269525392	6.432689567	-0.962256323
1.765796032	14.15462725	-1.305939059
1.199624343	13.64610336	-1.389292406
2.046005503	10.22909457	-1.141720665
1.416204683	8.72852668	-1.05176366
0.981864828	7.851665762	-1.017726662
1.287892797	6.421974234	-0.961239887
1.81060287	14.16000904	-1.306941967
1.241574519	13.64334894	-1.389393257
2.073617025	10.2042607	-1.139653575
1.441518308	8.715323505	-1.050700671
1.002039984	7.818119425	-1.013772015
1.306798942	6.414114618	-0.960659098
1.852225924	14.14056332	-1.305665474
1.283519101	13.64046621	-1.389494227
2.098885168	10.16864406	-1.136389624
1.467589615	8.70694349	-1.050228245
1.033896517	7.874995201	-1.021553638
1.325869635	6.407168561	-0.960223507
1.890702393	14.09829565	-1.302292208
1.325938864	13.64240571	-1.390099572
2.125789625	10.14172535	-1.134104859
1.493118873	8.69554934	-1.049401528
1.049992215	7.811823841	-1.013772015
0.703107569	7.210650556	-1.003372792
1.344706369	6.399197718	-0.95964266
1.927312232	14.04408556	-1.297824722
1.369673283	13.65708197	-1.392016695
2.160411503	10.15168469	-1.135954391
1.5185921	8.684080278	-1.04857481
1.08071055	7.857695083	-1.020150426
0.725424529	7.210430369	-1.003647094
1.361442443	6.381495519	-0.957609844
1.965683461	14.0045768	-1.294724922
1.411770743	13.65479567	-1.392218517
2.189657333	10.13626432	-1.134975324
1.544182992	8.673514772	-1.047866112
1.105503301	7.859253329	-1.020788197
0.747338047	7.206200421	-1.003372792
1.380595419	6.375354649	-0.95731945
2.780128127	15.39329634	-1.284659855
2.002982001	13.9590508	-1.291078072
1.453867153	13.6523782	-1.392420338
2.219680229	10.1246438	-1.134431254
1.570077517	8.664828431	-1.047393686
1.130315795	7.860732852	-1.021426084
0.767233614	7.183189724	-1.000491861
1.404395589	6.390415801	-0.960223507
2.828061571	15.38861495	-1.284987204
2.044064801	13.9410168	-1.289984088
1.495962043	13.64983148	-1.392622041
2.2511635	10.11972708	-1.13464893
1.596473328	8.658994002	-1.04727555
1.154426824	7.857227952	-1.021426083
0.787644375	7.166033117	-0.998434071
1.42054914	6.370625813	-0.957900237
2.881853214	15.41513439	-1.287933937
2.085498044	13.92581661	-1.289163452
1.538389205	13.65012143	-1.393126535
2.281543199	10.10986406	-1.134322535
1.618272206	8.628680133	-1.044204719
1.177643869	7.84776445	-1.020660642
0.809959477	7.166535657	-0.998845583
1.443798215	6.382643181	-0.960368704
2.910144819	15.30635172	-1.279584996
2.126255574	13.90655515	-1.287978272
1.580946581	13.65126727	-1.393731999
2.310552775	10.09409536	-1.133343349
1.642690608	8.612944553	-1.042905457
1.20021298	7.834310729	-1.019384983
0.833313408	7.175824357	-1.000491862
1.46558573	6.387826927	-0.961820732
2.169524345	13.90390237	-1.288342934
1.623760537	13.65425605	-1.394539165
2.323977481	10.01143063	-1.124857079
1.667405748	8.599090996	-1.041842468
1.221331882	7.811973008	-1.01696122
0.855090062	7.171266619	-1.000217443
1.483382672	6.375591266	-0.960659097
2.214518768	13.91193308	-1.289710503
1.667812885	13.6669861	-1.396355437
2.357414168	10.01586539	-1.12616266
1.691475394	8.582243326	-1.040425187
1.24404328	7.800353586	-1.015940669
0.879854028	7.191223515	-1.003372792
1.501572727	6.365232842	-0.959787858
2.258625777	13.91391985	-1.290531021
1.709364154	13.65884352	-1.396052646
2.381210003	9.979577717	-1.122898709
1.71760239	8.576040035	-1.040307051
1.266694818	7.788668313	-1.014920119
0.902035555	7.189473309	-1.003509885
1.516951787	6.343275284	-0.957174253
2.302765675	13.91576685	-1.291351656
1.751387429	13.65452179	-1.396153616
2.407843109	9.9557998	-1.121049177
1.741133285	8.55710752	-1.038653617
1.288313154	7.771046846	-1.013134243
0.921435388	7.166040322	-1.000629071
1.536172453	6.337629777	-0.957029056
2.34892521	13.92925865	-1.293266159
1.79210423	13.64020696	-1.39524548
2.434589321	9.932918746	-1.119308483
1.768382834	8.556588016	-1.039244063
1.310991848	7.760212153	-1.012241247
0.944062871	7.168089946	-1.001315001
1.555844775	6.333847676	-0.957174252
2.385241628	13.88469119	-1.289801698
1.835667454	13.64746277	-1.39655714
2.462655743	9.915754428	-1.118220459
1.794829672	8.552094017	-1.039362199
1.333111447	7.746379058	-1.010965589
0.965255675	7.159270023	-1.000491862
1.575986399	6.331925166	-0.957609844
2.425596857	13.8645554	-1.2886164
1.879427798	13.65556493	-1.39796977
2.488699054	9.890800904	-1.11626209
1.816506041	8.525180507	-1.036763793
1.355843422	7.736391127	-1.010200147
0.986809334	7.153331106	-1.00008035
1.595163125	6.326101099	-0.957464647
2.466200522	13.84626444	-1.287613611
1.917846805	13.62510475	-1.3954473
2.516331048	9.872522555	-1.115065347
1.842022674	8.516656162	-1.036409503
1.378700926	7.727312951	-1.009562376
1.009304339	7.154193272	-1.000629071
1.613094692	6.315425616	-0.956593407
2.507425275	13.8317743	-1.286975365
1.961622678	13.63294361	-1.39685993
2.541886761	9.846468352	-1.112998139
1.864523491	8.494476571	-1.034401661
1.40098385	7.715239708	-1.008541825
1.029268967	7.137337553	-0.99870849
1.627754429	6.292247384	-0.953834604
2.546055332	13.80345059	-1.285060745
2.004307032	13.63276728	-1.397465276
2.571580581	9.836700451	-1.112780582
1.888200844	8.478054727	-1.033102401
1.424106733	7.707979131	-1.008159163
1.050006031	7.126306354	-0.997610931
1.647301857	6.288180709	-0.953979801
2.589677174	13.80242529	-1.28569899
2.049815776	13.65115084	-1.399987745
2.59869459	9.817233132	-1.111475002
1.911795055	8.461567495	-1.031803257
1.443168053	7.679204561	-1.004969957
1.071422195	7.120113099	-0.997199421
1.667600661	6.286923001	-0.95456059
2.624544783	13.75528835	-1.28205214
2.092742418	13.6516811	-1.400694059
2.622625356	9.786169537	-1.108863842
1.937967594	8.456629674	-1.031921392
1.464486505	7.663050861	-1.003439191
1.093110844	7.115813316	-0.997062211
1.687650672	6.284643828	-0.954996181
2.664457355	13.73544028	-1.280958038
2.134769242	13.64617981	-1.400795029
2.656020033	9.790549649	-1.110278259
1.959632191	8.432266873	-1.029677277
1.486854614	7.652679713	-1.002673748
1.117391193	7.128083576	-0.99925721
1.705626089	6.2746627	-0.954270195
2.708896096	13.73892523	-1.28205214
2.177095263	13.64251381	-1.401097702
2.678411583	9.754556361	-1.107123148
1.983670803	8.418483591	-1.028732425
1.510325679	7.648082051	-1.002673748
1.136752113	7.10897218	-0.997062211
1.727230488	6.277986199	-0.955577027
2.751425136	13.73250288	-1.282234412
2.219898576	13.64166159	-1.401703047
2.701405514	9.721391115	-1.10429443
2.008104911	8.406563248	-1.028023727
1.534953346	7.649247387	-1.003439191
1.15839742	7.104473409	-0.996925001
1.741440701	6.254547607	-0.952818167
1.407765668	5.878368603	-0.944935709
2.79016622	13.70740801	-1.280684571
2.2617401	13.63478735	-1.401703047
2.725836051	9.693918751	-1.102118385
2.033418874	8.398432263	-1.027787571
1.559206136	7.648389446	-1.003949407
1.179051371	7.094046072	-0.995964769
1.760889467	6.250128056	-0.952963364
1.423230114	5.863460525	-0.943236738
2.833416556	13.70463432	-1.281231622
2.303726333	13.62876518	-1.401804017
2.058938916	8.391189558	-1.027669435
1.583468146	7.647454675	-1.00445974
1.20031376	7.087465805	-0.995553142
1.777344072	6.235181286	-0.951511336
1.438852249	5.849472666	-0.941692203
2.874425328	13.69100442	-1.280775766
2.34569659	13.62261373	-1.401904868
2.085391755	8.387724764	-1.028023726
1.605086022	7.633825486	-1.003311636
1.221547052	7.080821592	-0.99514163
1.796190875	6.228748356	-0.951366138
1.453685308	5.83256792	-0.93968436
2.918076066	13.6899129	-1.281505089
2.388682031	13.62221242	-1.402611183
2.112570437	8.387065133	-1.028732425
1.628291694	7.62789525	-1.003183965
1.24326493	7.077040256	-0.995141629
1.813075404	6.215609577	-0.950204503
1.467944357	5.813711402	-0.937367586
2.956903413	13.66629601	-1.28013752
2.433435588	13.63147035	-1.404326486
2.138291531	8.380543672	-1.028732424
1.648955641	7.610262415	-1.001525644
1.265319936	7.075142851	-0.995416048
1.832136133	6.210018086	-0.950204503
1.492383624	5.835024522	-0.941537766
2.997322262	13.65035186	-1.279499274
2.475422548	13.62491965	-1.404427338
2.164738003	8.376828326	-1.029086714
1.66803583	7.585794058	-0.998974327
1.286133269	7.066355094	-0.994730118
1.84948231	6.198679187	-0.949333321
1.511516993	5.835200802	-0.942310005
3.038970222	13.64011968	-1.279408197
2.517392587	13.61823873	-1.404528306
2.182885714	8.341328372	-1.025543457
1.692596728	7.586448757	-0.999739768
1.307265378	7.059454127	-0.99431849
1.86991975	6.197712357	-0.950059307
1.519134021	5.791353488	-0.935977487
3.084754812	13.64821563	-1.281049232
2.563021657	13.63098458	-1.406647133
2.199564169	8.300996553	-1.021409636
1.716082546	7.582187678	-0.999867322
1.328183997	7.051516462	-0.993769769
1.886615728	6.184375325	-0.948897671
3.128392752	13.64645291	-1.281778555
2.605763023	13.62794373	-1.407151628
2.223991823	8.290373044	-1.02093721
1.742443046	7.590420622	-1.001653198
1.349438808	7.045462724	-0.993495467
1.902081158	6.167212535	-0.947155248
3.172048652	13.64455137	-1.282507997
2.647181188	13.61793194	-1.406949924
2.255661329	8.306510037	-1.02377177
1.770219471	7.604359333	-1.004204515
1.371615608	7.044206388	-0.993906979
3.211152979	13.62312377	-1.281413894
2.690490522	13.61755461	-1.407757091
2.27666078	8.283273077	-1.021763927
1.793541003	7.598892612	-1.004204516
1.392066646	7.034135181	-0.99308384
3.251544376	13.6073967	-1.280866843
2.730689241	13.60143253	-1.406949924
2.297539008	8.259985971	-1.019756085
1.812691247	7.575991228	-1.001908306
1.411883044	7.021091314	-0.991849189
3.293744743	13.59929275	-1.281049233
2.77498975	13.60566324	-1.408261584
2.322331488	8.250986258	-1.019519812
1.833587878	7.560755408	-1.000632647
1.429848041	6.999257371	-0.989379886
3.336875512	13.59492667	-1.281596284
2.823579932	13.63020954	-1.41169219
2.346002357	8.238093086	-1.018811232
1.856775326	7.555094885	-1.000632648
1.449302363	6.98513907	-0.988008026
3.385298314	13.61168393	-1.284149032
2.862925953	13.6097991	-1.41048138
1.880184954	7.550325024	-1.000760202
1.471134118	6.982598314	-0.988282328
3.428259049	13.60606269	-1.284604889
2.90903024	13.62138391	-1.412600325
1.902612397	7.541635968	-1.000377539
1.49337827	6.981926697	-0.988831166
2.942375611	13.57350277	-1.408564257
1.925495209	7.534802687	-1.000249985
1.514791467	6.977312051	-0.988831166
2.988065879	13.58287303	-1.41048138
1.949845233	7.533660862	-1.000887873
1.535124806	6.967794979	-0.988145235
3.03362484	13.59112028	-1.412297535
1.966662535	7.50365744	-0.997698667
1.555413982	6.95821919	-0.987459305
3.0799213	13.60212597	-1.414416479
1.988656618	7.493754058	-0.997188334
1.576973279	6.95438064	-0.987596398
3.123641954	13.60133989	-1.415324615
2.011380383	7.486659646	-0.997060779
1.598301618	6.949509672	-0.987596398
3.166935201	13.59847522	-1.41603093
2.032517601	7.473754418	-0.996167901
1.618264969	6.93878546	-0.986773375
3.209096995	13.59063183	-1.416232633
2.053068431	7.458876915	-0.995019796
1.640684944	6.938607864	-0.987459305
3.251472257	13.58362523	-1.416535424
2.07700685	7.456365147	-0.995530013
1.663811677	6.941247828	-0.988556747
3.294538308	13.57938755	-1.41714077
2.098796538	7.446139027	-0.995019795
1.683930128	6.931297791	-0.987870816
3.338321612	13.57791117	-1.418048906
2.118366932	7.428219532	-0.993488912
1.703292767	6.918404643	-0.986773376
3.382367275	13.57725918	-1.419057893
2.141421479	7.422638593	-0.993616466
1.719954817	6.894885584	-0.984166864
3.426683882	13.57742967	-1.420167732
2.163072366	7.412225302	-0.993106249
1.737944955	6.877091834	-0.982383376
3.470293924	13.57456406	-1.420975017
2.181029353	7.389382685	-0.990937594
1.759281046	6.872687121	-0.982520585
3.513420082	13.56963225	-1.421580362
2.188086479	7.330385234	-0.983921413
1.784583699	6.88355781	-0.984852794
3.556296254	13.56360126	-1.422084856
2.218017163	7.348324895	-0.987238172
1.80443621	6.873259714	-0.984166863
3.599678946	13.55935786	-1.422791171
2.235918845	7.326307418	-0.985197071
1.826532361	6.871520767	-0.984715584
3.641519903	13.54921067	-1.42289214
2.257800379	7.31751779	-0.984941963
1.841170419	6.841971644	-0.981285933
3.682287628	13.53509468	-1.422589349
2.278762983	7.305822224	-0.984304192
1.863193978	6.840113806	-0.981834654
3.723266963	13.52181547	-1.422387646
1.881801009	6.825771335	-0.980600004
3.763665643	13.5064958	-1.421984004
1.901668572	6.816149471	-0.980051283
3.803465317	13.48914043	-1.421378541
1.91449768	6.781684307	-0.975935702
3.843466836	13.4726247	-1.420874047
1.929853807	6.756729575	-0.973191981
3.860229841	13.37569554	-1.41189401
1.952498778	6.75743861	-0.974152272
3.89483529	13.34182372	-1.409573245
1.975722176	6.759973369	-0.975386981
3.870951573	13.11035194	-1.386366295
1.996171258	6.752930287	-0.975249771
3.931081238	13.16514592	-1.393429326
2.016312219	6.744876222	-0.974975411
3.94240726	13.05682765	-1.383238362
2.035849193	6.734866079	-0.974426691
3.912726886	12.81630191	-1.359022425
2.054185655	6.721010153	-0.973329191
3.832901293	12.41827533	-1.318056988
2.075380687	6.716569284	-0.973603552
3.870685617	12.40550782	-1.317956018
2.092137732	6.697878996	-0.971820121
3.88029882	12.30343577	-1.308370518
2.105817212	6.669703367	-0.968664889
3.874516806	12.15497548	-1.293840932
2.123258402	6.653774727	-0.967293028
2.145486033	6.65288591	-0.968116168
2.168035239	6.652864838	-0.969076459
2.18378876	6.632069299	-0.967018668
2.200060327	6.613119495	-0.965235238
2.218445436	6.600705118	-0.964412157
2.238048601	6.591992321	-0.964137797
2.257619542	6.58322077	-0.963863377
2.278454322	6.578135538	-0.964137796
2.634720698	13.05534404	-1.221782761
2.206357252	13.3061358	-1.237544607
1.80115249	13.55702565	-1.242207892
1.330641784	13.3625724	-1.228114435
0.909153026	13.48859508	-1.232417647
0.458630957	13.73599787	-1.247145095
